ply
format ascii 1.0
comment Created by Open3D
element vertex 700
property double x
property double y
property double z
property double nx
property double ny
property double nz
property uchar red
property uchar green
property uchar blue
end_header
0.776367 -0.00292969 0.623087 0.934499 0.276764 0.223858 110 103 106
0.777212 -0.00292969 0.624023 0.933074 0.270114 0.237512 116 107 111
0.776367 -0.00292969 0.624919 0.933209 0.286735 0.216573 105 98 101
0.782227 -0.0849609 0.61915 0.641137 -0.728724 -0.240634 136 141 142
0.784594 -0.0732422 0.612305 0.107431 0.96548 -0.237293 129 122 120
0.782227 -0.0673891 0.612305 -0.0432604 -0.984845 0.167955 130 119 118
0.782227 -0.0677605 0.624023 -0.363681 0.92918 0.0660338 98 89 90
0.782227 -0.0673828 0.612281 -0.0432604 -0.984845 0.167955 130 119 118
0.787604 -0.0673828 0.618164 -0.126823 0.975268 -0.181018 114 105 105
0.782227 -0.0673828 0.622367 -0.134327 0.990533 -0.0283067 96 87 87
0.783652 -0.0673828 0.624023 -0.167335 0.983969 -0.061681 100 90 90
0.782227 -0.0673828 0.624891 -0.110276 0.980039 0.165415 94 84 84
0.782227 -0.0345054 0.629883 -0.25007 -0.109094 -0.962062 125 114 115
0.782227 -0.0371951 0.635742 -0.480843 -0.104961 -0.870502 124 115 116
0.787118 -0.0322266 0.624023 -0.431293 -0.00462194 -0.9022 123 112 113
0.782227 -0.0322266 0.626835 -0.229976 -0.239347 -0.943305 120 109 110
0.782227 -0.0263672 0.629619 -0.0678252 -0.430857 -0.899868 81 74 74
0.782557 -0.0263672 0.629883 -0.112955 -0.438822 -0.891446 82 75 75
0.782227 -0.014907 0.618164 0.183435 -0.828004 -0.529869 114 104 107
0.786834 -0.0205078 0.624023 -0.366922 -0.657149 -0.658425 89 82 83
0.782227 -0.0186134 0.624023 0.112423 -0.806458 -0.580506 88 80 82
0.782227 -0.0205078 0.628551 0.0264035 -0.594181 -0.803898 76 69 70
0.782227 -0.0113763 0.612305 0.547246 -0.680052 -0.487905 138 124 128
0.782227 -0.0146484 0.617704 0.219475 -0.82041 -0.527976 116 106 109
0.782227 -0.00306002 0.600586 0.998335 -0.0244432 -0.0522445 144 129 135
0.783979 -0.00878906 0.606445 0.747379 -0.516561 -0.417839 162 143 149
0.782227 -0.00662117 0.606445 -0.725004 -0.353204 -0.591284 149 133 138
0.782227 -0.00878906 0.608752 -0.68038 -0.396839 -0.616118 149 132 138
0.782227 -0.00292969 0.600263 0.998335 -0.0244432 -0.0522445 144 129 135
0.782227 -0.00288 0.600586 0.998335 -0.0244432 -0.0522445 144 129 135
0.782227 -0.00172879 0.606445 -0.977261 -0.155913 -0.143709 147 131 137
0.782227 0.000507789 0.612305 -0.899445 -0.333904 -0.28197 166 147 155
0.782227 0.00265007 0.618164 -0.912611 -0.258065 -0.317085 186 165 174
0.788086 -0.0821962 0.600586 -0.133954 -0.361294 -0.92278 137 127 126
0.788086 -0.0742075 0.606445 -0.160453 0.978304 -0.131056 134 140 144
0.788086 -0.0732422 0.607617 -0.160453 0.978304 -0.131056 133 138 141
0.793224 -0.0732422 0.612305 0.273216 -0.934849 0.226739 122 123 122
0.793867 -0.0732422 0.618164 0.598224 -0.745773 0.293174 119 121 119
0.788086 -0.0674658 0.618164 -0.0863016 0.96072 -0.26376 116 107 107
0.793885 -0.0673828 0.600586 -0.0232765 0.993019 0.115637 131 120 121
0.788086 -0.0673828 0.60715 -0.00600461 -0.994203 -0.10735 106 95 94
0.791114 -0.0673828 0.612305 -0.0337503 0.997532 -0.0615724 118 108 108
0.788086 -0.0673828 0.617817 -0.0863016 0.96072 -0.26376 117 108 108
0.788086 -0.067273 0.618164 -0.0863016 0.96072 -0.26376 115 106 106
0.788086 -0.0673828 0.618564 -0.126823 0.975268 -0.181018 116 107 107
0.788086 -0.0556641 0.579753 0.163456 -0.556473 -0.814629 79 77 78
0.792957 -0.0380859 0.583008 -0.851652 0.153055 0.501261 77 73 73
0.788086 -0.0322266 0.623629 -0.444227 0.0514993 -0.894433 123 112 113
0.788086 -0.0315781 0.624023 -0.469723 -0.013974 -0.882703 121 110 111
0.788086 -0.0283654 0.629883 -0.214328 -0.272029 -0.938117 107 98 99
0.792209 -0.0263672 0.618164 -0.295092 -0.447812 -0.844029 114 106 108
0.790722 -0.0263672 0.624023 -0.429917 -0.307491 -0.848894 111 103 104
0.788086 -0.021015 0.624023 -0.307942 -0.597312 -0.740533 93 85 87
0.788086 -0.0236852 0.629883 -0.106599 0.215176 -0.97074 108 100 101
0.788086 -0.0263672 0.632731 0.1768 -0.453562 -0.873512 111 103 105
0.788086 -0.0181143 0.618164 -0.23558 -0.812913 -0.532611 109 98 101
0.788086 -0.0205078 0.623577 -0.307942 -0.597312 -0.740533 92 84 85
0.789876 -0.0205078 0.624023 -0.353719 -0.651965 -0.67069 105 96 98
0.788086 -0.0102543 0.606445 -0.280402 -0.637011 -0.718047 184 161 167
0.788086 -0.0136763 0.612305 -0.231231 -0.776684 -0.585913 161 145 149
0.788086 -0.0146484 0.613972 -0.119958 -0.825273 -0.551847 155 140 144
0.793087 -0.0146484 0.635742 0.497681 -0.341281 -0.797396 160 146 149
0.788086 -0.00615286 0.600586 0.877801 -0.368659 -0.305869 187 163 170
0.788086 -0.00878906 0.603309 -0.0430772 -0.673796 -0.73766 185 162 168
0.788086 -0.00292969 0.599172 0.88986 -0.360609 -0.279483 190 165 174
0.793945 -0.0732422 0.618269 0.598224 -0.745773 0.293174 119 121 119
0.793945 -0.0673828 0.600517 -0.0232765 0.993019 0.115637 131 120 121
0.79396 -0.0673828 0.600586 -0.0232765 0.993019 0.115637 131 120 121
0.793945 -0.0673828 0.600607 -0.0232765 0.993019 0.115637 131 120 121
0.797003 -0.0673828 0.612305 -0.469555 0.864002 -0.181712 116 106 107
0.793945 -0.0673828 0.620383 0.125452 -0.990674 0.0531649 101 94 93
0.793945 -0.047525 0.583008 -0.791225 0.241809 0.561687 79 76 74
0.793945 -0.0393868 0.583008 -0.851652 0.153055 0.501261 83 79 79
0.797964 -0.0439453 0.588867 0.774531 -0.289682 -0.562304 107 103 101
0.798549 -0.0439453 0.600586 -0.950759 -0.229909 0.207842 136 129 129
0.793945 -0.0380859 0.581707 -0.851652 0.153055 0.501261 74 71 70
0.795558 -0.0380859 0.583008 0.851652 -0.153055 -0.501261 76 73 73
0.793945 -0.0370222 0.583008 -0.851652 0.153055 0.501261 75 72 71
0.793945 -0.0380859 0.584959 -0.851652 0.153055 0.501261 97 91 92
0.79766 -0.0380859 0.588867 -0.862535 -0.0297304 0.505123 96 91 92
0.796807 -0.0322266 0.606445 -0.916311 -0.396114 0.0588907 132 126 126
0.793945 -0.0291301 0.618164 -0.770527 -0.442961 -0.458338 133 123 126
0.793945 -0.0322266 0.621391 0.132019 0.388044 -0.912136 136 126 129
0.797181 -0.0322266 0.624023 0.43147 0.312164 -0.846396 134 126 128
0.793945 -0.0263672 0.616751 -0.776717 0.0492477 -0.627921 120 111 114
0.797957 -0.0263672 0.618164 -0.480536 -0.208647 -0.851793 130 121 123
0.793945 -0.024448 0.618164 -0.057437 -0.371585 -0.926621 131 121 123
0.793945 -0.0213851 0.624023 0.195907 0.500022 -0.843563 132 121 123
0.795466 -0.0205078 0.624023 0.161156 0.599503 -0.78398 131 120 121
0.793945 -0.0205078 0.624805 0.316835 0.462958 -0.82782 131 120 122
0.793945 -0.016292 0.635742 0.538448 -0.218671 -0.813792 156 143 144
0.796549 -0.0146484 0.635742 0.0422272 0.935099 0.351862 166 151 153
0.793945 -0.0146484 0.637543 0.402417 -0.395628 -0.825554 158 144 146
0.799805 -0.0673828 0.610519 -0.680904 0.663948 -0.309101 120 110 111
0.799805 -0.0439453 0.587511 0.774531 -0.289682 -0.562304 95 92 90
0.800929 -0.0439453 0.588867 0.774531 -0.289682 -0.562304 96 93 90
0.799805 -0.0439453 0.593334 -0.804556 0.217591 0.552579 125 119 118
0.801388 -0.0439453 0.594727 0.780879 0.600227 -0.173076 124 118 117
0.799805 -0.0439453 0.597532 -0.927774 -0.313957 0.201658 134 127 127
0.799805 -0.0415882 0.600586 -0.851332 -0.468876 0.235349 136 128 129
0.799805 -0.0386719 0.606445 -0.915566 -0.301168 0.266526 137 127 130
0.799805 -0.0418522 0.618164 0.624061 0.781355 -0.00578634 133 125 126
0.799805 -0.0439453 0.638305 -0.548533 0.276507 -0.789085 124 118 118
0.799805 -0.0380859 0.587079 0.862535 0.0297304 -0.505123 73 71 70
0.80128 -0.0380859 0.588867 0.862535 0.0297304 -0.505123 73 71 70
0.799805 -0.0366076 0.588867 0.862535 0.0297304 -0.505123 68 66 64
0.799805 -0.0380859 0.591205 -0.862535 -0.0297304 0.505123 97 94 93
0.804214 -0.0380859 0.594727 0.944016 0.217887 -0.247706 91 88 88
0.801596 -0.0380859 0.600586 0.917385 0.372215 -0.140931 136 127 129
0.799805 -0.038017 0.606445 -0.915566 -0.301168 0.266526 137 127 130
0.799805 -0.0380859 0.607015 -0.915566 -0.301168 0.266526 137 127 130
0.799805 -0.0380859 0.613199 -0.736912 -0.672216 -0.0713179 136 126 130
0.804304 -0.0380859 0.624023 -0.570495 0.35546 -0.740394 129 122 122
0.801264 -0.0380859 0.635742 -0.945262 -0.188137 -0.266615 120 115 116
0.799805 -0.0370469 0.635742 -0.945262 -0.188137 -0.266615 119 115 116
0.799805 -0.0380859 0.636402 -0.96893 -0.183419 -0.165925 118 114 115
0.799805 -0.0322266 0.602232 -0.996582 0.00326624 0.0825396 78 77 73
0.805031 -0.0322266 0.606445 -0.0180901 0.950375 -0.310579 64 63 59
0.799805 -0.0293548 0.606445 -0.884495 0.0148059 -0.466314 130 124 125
0.799805 -0.0300652 0.624023 0.562686 0.173501 -0.808258 132 124 126
0.799805 -0.0322266 0.625901 0.696755 0.707165 0.12021 134 126 128
0.799805 -0.028926 0.629883 -0.922048 -0.377048 0.0875398 129 121 122
0.799805 -0.0293601 0.635742 0.110661 -0.216179 -0.970062 124 117 118
0.799805 -0.0263672 0.619725 0.287596 -0.948717 0.131245 130 121 122
0.801983 -0.0263672 0.624023 0.204286 -0.458292 -0.865006 127 119 119
0.799805 -0.0263672 0.627011 0.0290166 -0.953065 -0.301372 127 119 119
0.801735 -0.0263672 0.629883 -0.136869 -0.924886 -0.354757 126 119 118
0.799805 -0.0244219 0.629883 -0.97431 -0.221582 0.0402742 125 117 117
0.801289 -0.0263672 0.635742 -0.35983 -0.157052 -0.919705 124 117 116
0.799805 -0.0248908 0.635742 0.0658403 0.226836 -0.971705 124 117 117
0.799805 -0.0263672 0.638584 -0.239963 -0.0754242 -0.967848 122 116 116
0.799805 -0.0169344 0.600586 -0.685174 -0.728377 -0.00182263 176 159 159
0.799805 -0.0183634 0.606445 -0.483518 -0.635084 0.602395 156 142 141
0.799805 -0.0192953 0.612305 -0.0668816 -0.991887 -0.108103 145 133 132
0.799805 -0.0205078 0.621108 -0.768118 0.609816 -0.195242 129 120 120
0.799805 -0.0187987 0.624023 -0.753165 0.362713 -0.5488 148 137 138
0.799805 -0.0146808 0.629883 -0.686975 -0.6661 -0.290476 172 156 157
0.799805 -0.0146484 0.587058 -0.668764 -0.396093 0.629178 188 168 167
0.799805 -0.0146484 0.615995 0.0810948 -0.985467 0.149257 200 183 184
0.80431 -0.0146484 0.618164 -0.414291 -0.906713 -0.0789573 199 182 184
0.80129 -0.0146484 0.624023 -0.863498 0.257714 -0.433536 195 178 180
0.799815 -0.0146484 0.629883 -0.686975 -0.6661 -0.290476 172 156 157
0.799805 -0.014621 0.629883 -0.686975 -0.6661 -0.290476 172 156 157
0.799805 -0.0146484 0.629931 -0.796939 -0.515118 -0.315502 172 156 157
0.805664 -0.0588949 0.606445 -0.789754 0.50518 0.347968 82 79 80
0.805664 -0.0527643 0.606445 0.914911 -0.0396105 -0.401708 71 67 65
0.805664 -0.0476762 0.600586 0.96583 0.0693237 -0.249734 90 83 81
0.805664 -0.0459875 0.606445 0.662044 0.700509 -0.26643 109 102 101
0.805664 -0.0439453 0.59375 0.942286 -0.119586 -0.312725 97 93 92
0.806351 -0.0439453 0.594727 0.942286 -0.119586 -0.312725 93 90 88
0.80865 -0.0439453 0.600586 0.768918 0.568202 -0.293106 116 111 110
0.808024 -0.0439453 0.606445 0.778524 0.450701 -0.436771 132 125 125
0.805664 -0.038104 0.606445 0.72823 0.426538 -0.53642 134 128 127
0.808459 -0.0439453 0.612305 0.391757 0.907046 -0.154251 131 125 125
0.806084 -0.0439453 0.618164 0.794654 0.598965 0.0988236 129 122 122
0.805664 -0.0431529 0.618164 0.794654 0.598965 0.0988236 129 122 122
0.805664 -0.0439453 0.620158 0.897907 0.364554 0.246705 129 122 122
0.805941 -0.0439453 0.624023 -0.941844 0.111789 -0.316911 129 123 123
0.805664 -0.0421637 0.624023 -0.974063 0.0921208 -0.206677 129 123 123
0.805768 -0.0439453 0.629883 -0.865716 0.359891 -0.347871 127 122 121
0.805927 -0.0439453 0.635742 -0.578577 0.610105 -0.541314 124 118 118
0.805664 -0.0420069 0.635742 -0.566636 0.516164 -0.642261 124 118 118
0.805664 -0.0380859 0.59389 0.944016 0.217887 -0.247706 77 75 74
0.806354 -0.0380859 0.594727 0.929677 0.128987 -0.345054 73 72 71
0.805664 -0.0371719 0.594727 0.947119 0.135105 -0.291054 77 75 74
0.807247 -0.0380859 0.600586 0.918544 0.320029 -0.232073 125 119 119
0.805664 -0.0354854 0.600586 0.927324 0.348503 -0.136437 100 95 94
0.805664 -0.0380859 0.606412 0.72823 0.426538 -0.53642 134 128 127
0.805664 -0.0380859 0.606464 0.72823 0.426538 -0.53642 134 128 128
0.809819 -0.0380859 0.612305 -0.619118 -0.670376 -0.409009 130 122 122
0.805664 -0.0380859 0.616482 -0.926476 0.351356 0.134874 130 123 125
0.809863 -0.0380859 0.618164 -0.888182 0.210076 -0.408657 128 122 121
0.805664 -0.0380859 0.621623 -0.905501 0.229933 -0.356649 128 123 123
0.805664 -0.0360304 0.624023 -0.586804 0.340994 -0.734427 127 120 121
0.805664 -0.0380859 0.6281 -0.925837 -0.0625131 -0.372717 124 120 119
0.805664 -0.0347477 0.629883 -0.624359 -0.294523 -0.723486 122 116 116
0.805664 -0.0380859 0.631692 -0.817829 -0.0377839 -0.574219 123 118 118
0.805664 -0.0322266 0.608777 0.751612 -0.0948373 -0.652752 86 85 81
0.808733 -0.0322266 0.612305 -0.60631 0.186109 0.773144 111 108 106
0.805664 -0.0311578 0.612305 -0.522849 -0.377072 0.76449 131 127 126
0.805664 -0.0322266 0.61341 -0.602399 -0.305131 0.737571 129 126 125
0.805664 -0.0322266 0.628995 -0.579047 0.205363 -0.789006 122 114 115
0.81128 -0.0263672 0.618164 -0.852807 -0.493788 -0.16998 108 99 98
0.810729 -0.0263672 0.624023 -0.29392 -0.925061 -0.240569 129 119 119
0.805664 -0.022766 0.624023 -0.381683 -0.631477 -0.674948 127 119 118
0.805664 -0.0263672 0.626738 -0.243405 -0.828839 -0.503765 127 119 119
0.809439 -0.0263672 0.629883 -0.177911 -0.96007 0.215901 129 120 119
0.811385 -0.0263672 0.635742 -0.0486489 -0.960794 0.272962 130 120 120
0.805664 -0.0187113 0.606445 -0.963828 0.09624 0.248542 155 140 141
0.809984 -0.0205078 0.612305 -0.752988 -0.637833 -0.161796 130 121 121
0.805664 -0.0185311 0.612305 -0.813454 -0.58154 -0.0101846 156 143 144
0.808454 -0.0205078 0.618164 -0.509647 -0.75647 -0.409895 129 120 120
0.805664 -0.0175844 0.618164 -0.510471 -0.804004 -0.304953 164 151 152
0.805664 -0.0205078 0.620936 -0.400421 -0.822883 -0.403147 129 120 119
0.810757 -0.00292969 0.56543 0.113194 -0.760835 -0.638997 218 188 194
0.811523 -0.0457346 0.612305 0.339448 0.923423 -0.179068 107 101 100
0.811523 -0.0498047 0.615579 -0.0975484 -0.714748 0.692545 97 89 89
0.815185 -0.0498047 0.618164 -0.167129 -0.943171 -0.287221 85 78 77
0.814601 -0.0439453 0.612305 0.019786 0.658963 0.751915 110 106 105
0.81324 -0.0439453 0.618164 -0.463388 -0.309645 -0.830296 130 124 124
0.811523 -0.0390437 0.618164 -0.792982 0.194879 -0.577237 128 122 121
0.811523 -0.0439453 0.619621 -0.627886 -0.105097 -0.771177 128 122 122
0.812969 -0.0380859 0.612305 0.219664 0.00402516 -0.975567 114 108 107
0.811523 -0.0380859 0.616526 -0.805101 0.158577 -0.571547 128 121 120
0.811523 -0.0359976 0.618164 -0.906438 0.301839 -0.295402 112 107 105
0.81398 -0.0322266 0.612305 0.222835 0.291666 -0.930202 61 59 57
0.812603 -0.0322266 0.618164 -0.606831 0.678811 -0.413489 79 75 73
0.811523 -0.0276621 0.618164 -0.973051 -0.0871179 0.213499 102 94 93
0.81153 -0.0322266 0.624023 -0.736308 0.653119 0.176879 128 121 121
0.811523 -0.0321815 0.624023 -0.736308 0.653119 0.176879 128 121 121
0.811523 -0.0322266 0.624049 -0.736308 0.653119 0.176879 128 121 121
0.816366 -0.0322266 0.629883 -0.296679 0.9321 -0.207778 131 124 124
0.811523 -0.030439 0.629883 0.510795 -0.840116 0.182464 122 113 114
0.811523 -0.0227677 0.612305 -0.613338 -0.46421 0.639004 125 115 114
0.811523 -0.0263672 0.61732 -0.9118 -0.410635 0.000218617 109 99 98
0.812193 -0.0263672 0.618164 -0.926706 -0.360305 0.106757 109 99 98
0.814898 -0.0263672 0.624023 -0.321335 -0.928874 -0.184218 119 108 107
0.811523 -0.0263672 0.625177 -0.28314 -0.94176 -0.181437 129 119 119
0.816655 -0.0263672 0.629883 0.0508988 -0.988464 0.142651 130 122 121
0.811523 -0.0248135 0.629883 -0.240556 -0.944018 0.225748 128 119 118
0.811523 -0.0262628 0.635742 -0.0563133 -0.986194 0.155725 130 120 120
0.811523 -0.0263672 0.636289 -0.100663 -0.978086 0.182251 130 120 120
0.811523 -0.0169531 0.594727 -0.685248 -0.324496 0.652026 190 168 169
0.811523 -0.0199516 0.606445 -0.798872 -0.557592 0.2256 138 127 127
0.811523 -0.0205078 0.60897 -0.763722 -0.583192 0.276796 131 121 121
0.815244 -0.0205078 0.612305 -0.540986 -0.837265 0.079513 133 122 123
0.811523 -0.00292969 0.566742 0.0893413 -0.860988 -0.500718 220 189 195
0.822359 -0.0498047 0.618164 0.193667 -0.231817 -0.953286 75 79 75
0.817383 -0.0439453 0.60854 0.521049 -0.234101 -0.820795 68 68 66
0.819974 -0.0439453 0.612305 0.276524 -0.19986 -0.939995 76 74 72
0.817383 -0.0380859 0.609203 0.367943 0.157156 -0.916472 71 69 68
0.820854 -0.0380859 0.612305 0.205569 -0.00183695 -0.978641 59 59 58
0.817383 -0.0323504 0.629883 -0.309507 0.937505 -0.159025 133 127 127
0.817383 -0.0322266 0.609887 0.151382 0.252947 -0.955563 16 20 14
0.819707 -0.0322266 0.612305 0.214298 0.234754 -0.948139 17 20 16
0.817383 -0.0302322 0.612305 0.147797 0.0137871 -0.988922 48 46 43
0.817383 -0.0283109 0.618164 -0.469304 0.821334 -0.32429 96 87 86
0.817383 -0.026929 0.624023 -0.273408 0.913803 0.300353 108 96 96
0.817383 -0.0322266 0.629582 -0.309507 0.937505 -0.159025 130 124 124
0.817609 -0.0322266 0.629883 -0.309507 0.937505 -0.159025 131 125 124
0.817383 -0.0299172 0.629883 -0.0508988 0.988464 -0.142651 132 125 125
0.817383 -0.0322266 0.62999 -0.309507 0.937505 -0.159025 133 127 127
0.817383 -0.0269716 0.635742 -0.185874 0.965871 -0.1804 128 120 118
0.819731 -0.0263672 0.624023 0.00377583 0.948632 0.316359 110 97 96
0.817383 -0.0263672 0.627306 0.150456 0.988421 -0.0196753 122 112 111
0.817383 -0.0263672 0.631053 -0.0508988 0.988464 -0.142651 130 121 121
0.818389 -0.0263672 0.635742 -0.185874 0.965871 -0.1804 123 115 113
0.817383 -0.0263672 0.638632 0.00124661 0.979549 -0.201202 128 120 118
0.823242 -0.0484426 0.618164 0.290264 -0.152418 -0.94473 72 77 73
0.823242 -0.0439453 0.616076 0.348342 -0.198612 -0.916084 53 53 51
0.823242 -0.0380859 0.614287 0.320441 0.0370963 -0.946542 40 41 41
0.82827 -0.0380859 0.618164 0.324005 0.0590243 -0.944212 46 45 45
0.823242 -0.0322266 0.616476 0.227862 0.438931 -0.869148 17 21 16
0.825247 -0.0322266 0.618164 0.32898 0.282293 -0.901156 29 31 28
0.823242 -0.0307799 0.618164 0.175643 0.513032 -0.840207 45 45 41
0.823242 -0.0207465 0.618164 0.0827566 -0.921052 -0.380545 130 119 118
0.823242 -0.0263672 0.623359 -0.0160853 0.912905 0.407856 109 96 96
0.823242 -0.0205078 0.617689 0.0996682 -0.832181 -0.545474 130 119 118
0.829102 -0.0491943 0.624023 0.27338 -0.132803 -0.952694 73 78 74
0.829102 -0.0380859 0.619468 0.294116 0.048248 -0.954551 47 45 46
0.832721 -0.0380859 0.624023 0.305383 0.393402 -0.867166 66 63 62
0.829102 -0.0322266 0.620429 0.37437 0.386023 -0.843109 38 39 36
0.83363 -0.0263672 0.600586 -0.946952 -0.24973 0.20228 45 44 46
0.829102 -0.0232088 0.618164 0.0482978 -0.946217 -0.319907 132 120 119
0.829102 -0.0263672 0.621854 0.286353 -0.16785 -0.943307 130 121 119
0.83184 -0.0263672 0.624023 0.303061 -0.377107 -0.875182 130 121 119
0.833947 -0.0263672 0.629883 0.271132 0.380868 -0.883984 130 121 119
0.834324 -0.0205078 0.600586 -0.852095 -0.0288989 0.522589 45 45 44
0.834432 -0.0205078 0.606445 -0.587135 0.783399 -0.20386 59 57 57
0.833642 -0.0205078 0.612305 -0.0189391 -0.962417 -0.270913 86 79 79
0.829102 -0.0205078 0.615521 0.0956397 -0.830764 -0.548346 131 118 118
0.831123 -0.00292969 0.641602 -0.72866 -0.445235 -0.520405 235 207 222
0.829102 -0.00128012 0.641602 -0.715255 -0.469468 -0.517698 234 206 222
0.829102 -0.00292969 0.643893 -0.732898 -0.442812 -0.516506 234 205 221
0.838167 -0.0380859 0.618164 -0.175123 -0.787661 -0.590696 71 70 72
0.834961 -0.0348614 0.624023 0.105387 0.45994 -0.881674 76 70 70
0.834961 -0.0380859 0.627197 0.0437615 0.413659 -0.909379 89 83 83
0.834961 -0.0285081 0.600586 0.76253 -0.0171289 -0.646726 51 52 54
0.83854 -0.0322266 0.612305 -0.357225 -0.718283 -0.597042 58 60 60
0.838172 -0.0322266 0.618164 -0.822549 -0.226135 -0.5218 54 55 55
0.834961 -0.0322266 0.620667 -0.118276 0.461305 -0.879323 64 60 62
0.834961 -0.0284266 0.624023 0.339478 0.319636 -0.88464 108 101 99
0.834961 -0.0274587 0.629883 0.407928 0.337075 -0.848513 119 111 109
0.834961 -0.0263672 0.599224 0.744782 -0.0765435 -0.662903 47 45 48
0.836431 -0.0263672 0.600586 0.744782 -0.0765435 -0.662903 45 43 46
0.834961 -0.0263672 0.604908 -0.960234 -0.272082 0.0626293 40 41 42
0.836144 -0.0263672 0.606445 -0.911928 -0.192158 0.362578 40 42 42
0.834961 -0.0230114 0.606445 -0.981841 -0.130941 0.13727 46 46 46
0.839274 -0.0263672 0.612305 -0.249871 -0.897001 -0.364629 54 53 53
0.834961 -0.0211706 0.612305 0.246318 -0.882682 -0.40025 73 69 68
0.839418 -0.0263672 0.618164 -0.577872 -0.599171 -0.554128 65 62 59
0.834961 -0.0232012 0.618164 -0.307938 -0.916344 -0.255907 132 121 120
0.834961 -0.0250893 0.624023 0.872021 -0.298212 -0.388135 130 121 119
0.836549 -0.0263672 0.629883 0.407928 0.337075 -0.848513 129 120 118
0.834961 -0.0257629 0.629883 0.327703 0.298654 -0.896335 130 121 119
0.834961 -0.0263672 0.632956 0.351412 0.261059 -0.899087 130 121 119
0.834961 -0.0205078 0.599264 0.732874 0.207239 -0.648034 38 38 38
0.835859 -0.0205078 0.600586 0.733759 0.0586724 -0.676871 43 43 43
0.834961 -0.0197354 0.600586 0.735743 0.157104 -0.658788 43 44 43
0.834961 -0.0146484 0.606037 -0.551475 0.796835 -0.246839 46 50 51
0.838493 -0.00878906 0.635742 -0.712219 -0.431461 -0.553702 229 204 215
0.834961 -0.00480089 0.635742 -0.698564 -0.465256 -0.543641 227 203 214
0.834961 -0.00878906 0.63834 -0.6935 -0.287294 -0.660696 229 205 216
0.839323 -0.00292969 0.629883 -0.659042 -0.406074 -0.633062 201 176 189
0.834961 -0.00292969 0.633947 -0.717064 -0.449624 -0.532596 225 200 212
0.84082 -0.0732422 0.610041 -0.00583724 0.487882 -0.87289 133 144 147
0.843078 -0.0732422 0.612305 0.233459 0.494315 -0.837347 133 143 146
0.84082 -0.0341442 0.612305 0.098026 -0.784345 -0.612531 54 56 57
0.84082 -0.0380859 0.615683 -0.0195003 -0.824699 -0.565235 62 63 65
0.843873 -0.0380859 0.618164 -0.245929 -0.805736 -0.538802 65 65 67
0.84082 -0.0380859 0.62183 -0.216047 -0.728626 -0.649944 56 56 58
0.843818 -0.0380859 0.624023 0.0642582 0.000269795 -0.997933 65 65 66
0.84082 -0.0357366 0.624023 -0.527966 -0.655254 0.540272 45 47 48
0.84082 -0.0380859 0.625444 0.218961 0.440355 -0.870714 61 60 62
0.84082 -0.0298447 0.606445 0.483837 -0.561091 -0.671624 56 57 59
0.84082 -0.0322266 0.60897 0.474109 -0.582099 -0.660592 55 58 59
0.846097 -0.0322266 0.612305 0.151927 -0.61215 -0.776009 60 63 63
0.84082 -0.0277622 0.624023 -0.809644 -0.344891 -0.474897 104 100 99
0.84082 -0.0263672 0.60457 0.67092 -0.182358 -0.718757 48 47 49
0.843496 -0.0263672 0.606445 0.55946 -0.18416 -0.808139 47 45 47
0.844631 -0.0263672 0.612305 0.330131 -0.505009 -0.797483 40 40 40
0.84082 -0.0263672 0.621198 -0.786231 -0.435229 -0.438653 86 83 80
0.841628 -0.0263672 0.624023 -0.815412 -0.256823 -0.518791 113 107 105
0.84082 -0.0254045 0.624023 -0.756173 0.325992 -0.56739 126 119 117
0.84082 -0.0263672 0.625798 -0.727348 0.306633 -0.613955 126 119 117
0.84082 -0.0205078 0.603653 0.713373 0.0736671 -0.696902 38 39 39
0.843705 -0.0205078 0.606445 0.445286 0.154856 -0.881896 40 41 42
0.84082 -0.0166037 0.629883 -0.75944 0.261022 -0.595919 190 172 179
0.84082 -0.0146484 0.605308 0.585383 0.27645 -0.76217 41 45 46
0.842492 -0.0146484 0.606445 0.325701 0.598205 -0.732168 46 49 50
0.843457 -0.0146484 0.612305 0.321511 0.430556 -0.843358 55 58 58
0.84082 -0.0144327 0.612305 0.0550985 0.644667 -0.762476 49 55 54
0.84082 -0.0121206 0.618164 -0.438334 0.842818 -0.312285 118 112 117
0.84082 -0.0096927 0.629883 -0.769007 -0.416311 -0.485091 225 202 213
0.84082 -0.0146484 0.634813 -0.6888 0.194536 -0.698363 224 202 212
0.84082 -0.00878906 0.629151 -0.746792 -0.363485 -0.556938 226 203 214
0.842737 -0.00292969 0.624023 -0.741346 -0.397419 -0.540799 209 184 196
0.84082 0.000530722 0.624023 -0.708385 -0.397958 -0.582941 206 183 196
0.84082 -0.00292969 0.627638 -0.691587 -0.420336 -0.587388 195 171 184
-0.0908203 -0.0473405 0.530273 -0.762445 0.0172861 -0.646822 9 11 10
-0.0908203 -0.0439453 0.534391 -0.762445 0.0172861 -0.646822 10 12 12
-0.0797776 -0.0498047 0.524414 -0.791875 0.0715202 -0.606481 9 11 10
-0.0849609 -0.0498047 0.527114 -0.791875 0.0715202 -0.606481 10 12 12
-0.0849609 -0.0464277 0.530273 -0.791875 0.0715202 -0.606481 11 13 13
-0.0791016 -0.0498047 0.524088 -0.791875 0.0715202 -0.606481 9 11 10
-0.0791016 -0.0493501 0.524414 -0.791875 0.0715202 -0.606481 9 11 10
-0.0791016 -0.0119456 0.541992 -0.788076 -0.0214338 -0.615204 9 11 10
-0.0732422 -0.0113427 0.536133 -0.788076 -0.0214338 -0.615204 8 10 9
-0.0546899 -0.00878906 0.512695 0.648241 -0.638615 0.414674 8 10 9
-0.0556641 -0.00878906 0.513388 0.648241 -0.638615 0.414674 8 10 9
-0.0498047 -0.00878906 0.509036 -0.562053 0.721565 -0.404278 8 10 9
0.379684 0.0966797 0.37793 0.859611 -0.458002 -0.226503 52 51 52
0.379917 0.0966797 0.383789 0.948443 -0.29584 -0.113727 47 47 48
0.3808 0.0966797 0.389648 0.987679 -0.149196 -0.0472304 50 49 50
0.381398 0.0966797 0.395508 0.998438 -0.0298891 -0.0472087 55 53 54
0.380956 0.0966797 0.401367 0.995438 0.0947738 0.0110079 55 53 55
0.380767 0.0966797 0.407227 0.955748 0.287251 0.0635059 56 55 56
0.380214 0.0966797 0.413086 0.922318 0.37652 0.0869625 55 54 55
0.379367 0.0966797 0.418945 0.889715 0.422842 0.172081 54 54 54
0.37793 0.101406 0.418945 0.792914 0.574439 0.20324 49 50 50
0.378917 0.0966797 0.424805 0.857267 0.457233 0.23671 54 53 53
0.37793 0.0980601 0.424805 0.82128 0.512925 0.249816 48 49 48
0.37793 0.0966797 0.426757 0.840344 0.479881 0.252063 49 49 49
0.379856 0.102539 0.37793 0.980135 -0.188886 -0.0604729 45 43 45
0.379616 0.102539 0.383789 0.999782 -0.00213896 0.0207732 41 40 41
0.379739 0.102539 0.389648 0.994679 0.0930574 0.0441947 42 41 42
0.379785 0.102539 0.395508 0.944562 0.283162 0.166199 45 44 45
0.37793 0.107933 0.395508 0.891205 0.384901 0.240009 42 42 43
0.379555 0.102539 0.401367 0.910938 0.391344 0.130541 46 45 46
0.37793 0.106026 0.401367 0.816205 0.520559 0.250654 39 39 39
0.378603 0.102539 0.407227 0.881209 0.448752 0.148636 44 44 44
0.37793 0.103259 0.407227 0.875403 0.461173 0.144877 40 40 41
0.378243 0.102539 0.413086 0.828269 0.534331 0.168704 48 48 48
0.37793 0.102887 0.413086 0.828269 0.534331 0.168704 46 46 46
0.37793 0.102539 0.415851 0.820284 0.54523 0.172798 48 48 48
0.379991 0.108398 0.37793 0.997343 0.0397033 0.061076 52 51 54
0.379932 0.108398 0.383789 0.98274 0.12425 0.137054 55 53 55
0.379749 0.108398 0.389648 0.930488 0.299758 0.210566 51 50 52
0.37793 0.114163 0.389648 0.886083 0.363578 0.28752 52 52 53
0.37793 0.108398 0.394954 0.894322 0.379337 0.237259 42 43 44
0.381799 0.114258 0.37793 0.932341 0.313462 0.180227 70 67 70
0.379095 0.114258 0.383789 0.916417 0.32372 0.235342 56 55 57
0.37793 0.116501 0.383789 0.857356 0.442193 0.263449 51 51 52
0.37793 0.114258 0.389502 0.885245 0.358048 0.296889 52 52 54
0.378635 0.120117 0.37793 0.850176 0.468264 0.240687 53 53 55
0.37793 0.121021 0.37793 0.828231 0.498871 0.255267 49 49 51
0.37793 0.120117 0.37952 0.849477 0.471588 0.23663 51 50 52
0.37793 0.16556 0.46582 0.319173 -0.878096 -0.356477 105 101 103
0.37793 0.171842 0.442383 0.364511 -0.88032 -0.303593 104 101 102
0.37793 0.170779 0.448242 0.316411 -0.920709 -0.228427 104 101 102
0.37793 0.169859 0.454102 0.325159 -0.911561 -0.251653 104 101 103
0.37793 0.169085 0.459961 0.33096 -0.892159 -0.307437 105 101 103
0.37793 0.166992 0.463172 0.269671 -0.88526 -0.378936 105 102 103
0.37793 0.17791 0.430664 0.429442 -0.791367 -0.435106 103 100 102
0.37793 0.173931 0.436523 0.370957 -0.859628 -0.351328 105 102 103
0.37793 0.172852 0.439725 0.383533 -0.861597 -0.332496 104 101 102
0.379514 0.172852 0.442383 0.324083 -0.885688 -0.332456 107 103 105
0.382717 0.172852 0.448242 0.213284 -0.942265 -0.258159 113 109 111
0.37793 0.183105 0.418945 0.433401 -0.795726 -0.423065 102 99 101
0.37793 0.183929 0.424805 0.409187 -0.805338 -0.428949 104 100 102
0.37793 0.178711 0.428833 0.412397 -0.797514 -0.440341 103 100 102
0.381093 0.178711 0.430664 0.384481 -0.808733 -0.445113 108 104 107
0.37793 0.185106 0.413086 0.423416 -0.770675 -0.476213 101 98 100
0.37793 0.18457 0.413851 0.456306 -0.772407 -0.441783 102 99 101
0.380041 0.18457 0.418945 0.422559 -0.800183 -0.425619 106 102 104
0.378998 0.18457 0.424805 0.405291 -0.812262 -0.419487 106 102 104
0.383789 0.166552 0.46582 0.0619219 -0.917393 -0.393136 119 114 117
0.383789 0.172448 0.454102 0.0898353 -0.946138 -0.311051 115 110 113
0.383789 0.170671 0.459961 0.0580928 -0.937734 -0.342461 115 110 113
0.383789 0.166992 0.465214 0.0431965 -0.919404 -0.390936 119 114 117
0.383789 0.177697 0.436523 0.215904 -0.872842 -0.437645 116 112 114
0.383789 0.175947 0.442383 0.172025 -0.922452 -0.345672 117 112 114
0.383789 0.173343 0.448242 0.1786 -0.935772 -0.304028 116 111 113
0.383789 0.172852 0.451682 0.137353 -0.946828 -0.290947 115 110 113
0.383789 0.179886 0.430664 0.142645 -0.87674 -0.459326 113 108 111
0.383789 0.178711 0.4333 0.237999 -0.832159 -0.500867 115 110 113
0.387787 0.178711 0.436523 0.0700366 -0.888439 -0.45362 125 119 123
0.383789 0.187863 0.418945 0.201169 -0.867341 -0.455249 112 107 109
0.38557 0.18457 0.424805 0.0445092 -0.887098 -0.459429 119 114 116
0.383789 0.185334 0.424805 0.12606 -0.867602 -0.481015 115 111 113
0.383789 0.18457 0.426345 0.122631 -0.887711 -0.443768 115 111 113
0.389648 0.166616 0.46582 -0.246548 -0.897944 -0.364568 129 122 127
0.389648 0.170698 0.454102 -0.243743 -0.92072 -0.304737 129 123 128
0.392624 0.166992 0.459961 -0.349515 -0.864446 -0.361347 134 127 132
0.389648 0.168648 0.459961 -0.195564 -0.904356 -0.379335 131 124 129
0.389648 0.166992 0.464795 -0.242857 -0.895976 -0.371816 129 122 127
0.392364 0.172852 0.442383 -0.271844 -0.852149 -0.447149 130 123 128
0.389648 0.174736 0.442383 -0.087141 -0.925465 -0.368674 126 120 124
0.390398 0.172852 0.448242 -0.259827 -0.886549 -0.382781 128 122 126
0.389648 0.173312 0.448242 -0.22087 -0.901185 -0.372937 127 120 125
0.389648 0.172852 0.44923 -0.21655 -0.93059 -0.295141 128 121 125
0.389648 0.182902 0.424805 -0.083211 -0.904964 -0.417271 125 120 124
0.389648 0.180101 0.430664 -0.10637 -0.895995 -0.431136 127 122 126
0.393 0.178711 0.436523 -0.219831 -0.893551 -0.39146 133 126 131
0.389648 0.178946 0.436523 -0.0593243 -0.896728 -0.438589 128 123 127
0.389648 0.178711 0.43705 -0.0530622 -0.90074 -0.431106 129 123 127
0.3947 0.18457 0.418945 -0.282438 -0.812476 -0.510012 136 129 136
0.389648 0.186968 0.418945 -0.034472 -0.870506 -0.490948 126 120 124
0.389648 0.18457 0.421988 -0.112548 -0.821623 -0.558809 125 119 123
0.395508 0.165553 0.459961 -0.267043 -0.88585 -0.379418 137 129 135
0.400319 0.161133 0.46582 -0.0745733 -0.906724 -0.415079 148 137 145
0.395508 0.163234 0.46582 -0.266264 -0.895706 -0.35611 139 130 136
0.395508 0.161133 0.469478 -0.279917 -0.88345 -0.375715 139 129 135
0.395508 0.171561 0.442383 -0.285512 -0.846884 -0.448633 137 130 136
0.401284 0.166992 0.448242 -0.123804 -0.936203 -0.328933 148 139 148
0.395508 0.170268 0.448242 -0.276786 -0.904116 -0.325521 139 131 138
0.398503 0.166992 0.454102 -0.227729 -0.914724 -0.333796 143 134 142
0.395508 0.168605 0.454102 -0.288898 -0.90794 -0.303615 138 129 136
0.395508 0.166992 0.457434 -0.29735 -0.89035 -0.344761 137 129 135
0.395508 0.177987 0.436523 -0.228878 -0.883081 -0.409612 136 129 135
0.395508 0.172852 0.439386 -0.277638 -0.841225 -0.463959 138 131 137
0.395508 0.184172 0.418945 -0.268302 -0.818131 -0.508601 138 131 137
0.395508 0.180351 0.424805 -0.216941 -0.899108 -0.380187 139 132 138
0.396939 0.178711 0.430664 -0.217909 -0.88381 -0.413999 139 132 139
0.395508 0.179291 0.430664 -0.222248 -0.883671 -0.411986 136 129 136
0.395508 0.178711 0.435256 -0.193849 -0.880828 -0.431931 136 129 135
0.395508 0.18457 0.418554 -0.290495 -0.811249 -0.507432 138 131 137
0.401367 0.160594 0.46582 -0.0665912 -0.904605 -0.421016 150 139 147
0.401367 0.166932 0.448242 -0.123804 -0.936203 -0.328933 148 139 148
0.401367 0.164685 0.454102 -0.0222952 -0.939603 -0.341538 147 138 146
0.401367 0.162884 0.459961 -0.0130537 -0.946736 -0.321745 147 137 145
0.401367 0.161133 0.464609 -0.040186 -0.911138 -0.410137 149 138 146
0.403564 0.161133 0.46582 0.0794069 -0.89704 -0.434757 151 140 149
0.401367 0.169697 0.442383 -0.152708 -0.886422 -0.436963 147 139 147
0.401367 0.166992 0.447997 -0.123804 -0.936203 -0.328933 148 139 148
0.401592 0.166992 0.448242 -0.0913162 -0.934367 -0.344413 148 140 148
0.407017 0.166992 0.454102 0.146093 -0.941 -0.305246 151 142 152
0.401367 0.176492 0.430664 -0.195198 -0.880358 -0.432283 148 140 148
0.401367 0.17327 0.436523 -0.187245 -0.85311 -0.486972 148 140 148
0.401367 0.172852 0.437388 -0.168735 -0.8466 -0.504775 148 140 148
0.401367 0.181801 0.418945 -0.241229 -0.85605 -0.457152 149 142 151
0.401367 0.179597 0.424805 -0.179714 -0.899611 -0.397998 149 141 150
0.401367 0.178711 0.42654 -0.189236 -0.894753 -0.404484 149 141 150
0.401367 0.190345 0.401367 -0.268085 -0.840014 -0.471706 192 184 205
0.401367 0.189776 0.407227 -0.297169 -0.832458 -0.467659 165 159 173
0.405203 0.18457 0.413086 -0.270907 -0.871162 -0.409494 160 152 164
0.401367 0.186974 0.413086 -0.33755 -0.833755 -0.436935 155 147 158
0.401367 0.18457 0.415084 -0.324465 -0.825194 -0.46236 152 144 154
0.407227 0.165668 0.459961 0.188357 -0.92807 -0.321259 149 139 148
0.407227 0.162527 0.46582 0.15695 -0.886543 -0.435211 151 141 151
0.407227 0.161133 0.467321 0.135179 -0.836948 -0.530325 153 142 152
0.407227 0.170858 0.442383 0.111394 -0.920994 -0.373312 150 141 151
0.407227 0.168467 0.448242 0.127992 -0.948389 -0.290131 151 142 152
0.407227 0.167067 0.454102 0.146093 -0.941 -0.305246 151 142 152
0.407227 0.166992 0.454458 0.146093 -0.941 -0.305246 151 142 152
0.410062 0.166992 0.459961 0.237669 -0.900232 -0.364824 149 139 149
0.407227 0.176305 0.430664 -0.067201 -0.918314 -0.390107 150 142 152
0.407227 0.173428 0.436523 0.00110043 -0.918004 -0.396571 150 141 151
0.407227 0.172852 0.437625 0.0376792 -0.880253 -0.473006 150 141 151
0.407227 0.18387 0.413086 -0.259294 -0.872591 -0.413946 163 155 168
0.407227 0.181929 0.418945 -0.138436 -0.925231 -0.353246 157 149 161
0.410913 0.178711 0.424805 0.00280857 -0.92678 -0.375594 156 148 161
0.407227 0.179415 0.424805 -0.0802579 -0.917018 -0.390688 153 145 156
0.407227 0.178711 0.425898 -0.0462398 -0.916171 -0.398111 152 144 155
0.411233 0.18457 0.407227 -0.0488518 -0.871874 -0.487287 171 163 178
0.407227 0.186415 0.407227 -0.209933 -0.868013 -0.449979 170 163 178
0.407227 0.18457 0.410835 -0.209933 -0.868013 -0.449979 165 156 170
0.413086 0.164795 0.46582 0.163951 -0.88895 -0.427654 151 140 151
0.413086 0.161133 0.470911 0.161891 -0.824309 -0.542499 152 140 151
0.413086 0.171756 0.442383 0.126051 -0.927524 -0.351868 152 142 154
0.413086 0.1708 0.448242 0.146706 -0.947199 -0.285117 152 142 153
0.413086 0.169967 0.454102 0.15602 -0.950836 -0.267523 151 142 152
0.413086 0.168273 0.459961 0.128895 -0.923555 -0.361154 150 140 151
0.413086 0.166992 0.462786 0.15015 -0.899319 -0.410706 150 140 150
0.413086 0.178418 0.424805 0.0185889 -0.932939 -0.359553 157 150 163
0.413086 0.176569 0.430664 0.0456571 -0.929568 -0.365813 154 146 158
0.413086 0.174367 0.436523 0.0761467 -0.928213 -0.364174 151 142 154
0.413086 0.172852 0.439123 0.060202 -0.936641 -0.34508 152 142 154
0.418669 0.172852 0.442383 -0.0872297 -0.932604 -0.350202 146 137 148
0.413086 0.18409 0.407227 -0.0588373 -0.871102 -0.487564 172 165 181
0.413086 0.182279 0.413086 -0.0242101 -0.911275 -0.411086 167 160 175
0.413086 0.180619 0.418945 -0.020804 -0.946594 -0.321758 163 155 170
0.413086 0.178711 0.424045 0.00977903 -0.933736 -0.357829 158 150 164
0.414328 0.178711 0.424805 0.0146946 -0.934111 -0.356679 157 149 163
0.413086 0.18457 0.406395 -0.0588373 -0.871102 -0.487564 174 166 183
0.414623 0.18457 0.407227 -0.0546188 -0.876033 -0.479148 171 164 179
0.418945 0.166175 0.46582 -0.0890367 -0.910035 -0.404857 144 134 145
0.418945 0.171131 0.448242 -0.0825641 -0.943798 -0.320045 145 136 146
0.418945 0.169409 0.454102 -0.0638347 -0.955125 -0.289244 145 135 146
0.421096 0.166992 0.459961 -0.179543 -0.918293 -0.352848 139 130 140
0.418945 0.167406 0.459961 -0.0855982 -0.928011 -0.362587 143 134 144
0.418945 0.166992 0.462543 -0.0937104 -0.911157 -0.401262 144 134 144
0.418945 0.177773 0.430664 -0.0735946 -0.940073 -0.332935 149 142 154
0.418945 0.176228 0.436523 -0.0495839 -0.93209 -0.358816 145 137 149
0.419295 0.172852 0.442383 -0.0872297 -0.932604 -0.350202 145 136 147
0.418945 0.172942 0.442383 -0.0872297 -0.932604 -0.350202 145 136 147
0.418945 0.172852 0.442593 -0.0872297 -0.932604 -0.350202 145 136 147
0.418945 0.183173 0.413086 -0.0418094 -0.909474 -0.413653 163 156 171
0.418945 0.181527 0.418945 -0.0587025 -0.940649 -0.334266 160 152 167
0.418945 0.179794 0.424805 -0.0723688 -0.943159 -0.324367 155 147 161
0.418945 0.178711 0.42782 -0.0864736 -0.934145 -0.346259 152 144 157
0.418945 0.188664 0.407227 -0.0829914 -0.883567 -0.460892 175 168 185
0.418945 0.18457 0.41004 -0.0883874 -0.889992 -0.447328 166 159 173
0.424805 0.165807 0.459961 -0.280116 -0.906524 -0.315832 133 123 132
0.429617 0.161133 0.46582 -0.253215 -0.913045 -0.319736 124 114 122
0.424805 0.16334 0.46582 -0.21584 -0.90564 -0.365006 133 123 132
0.424805 0.171847 0.442383 -0.203032 -0.916466 -0.344772 134 126 136
0.430172 0.166992 0.448242 -0.16742 -0.932271 -0.320688 122 115 123
0.424805 0.170276 0.448242 -0.248945 -0.917155 -0.311213 134 125 135
0.426392 0.166992 0.454102 -0.287473 -0.902935 -0.319481 130 122 131
0.424805 0.167711 0.454102 -0.288412 -0.910412 -0.296596 133 125 134
0.424805 0.166992 0.456315 -0.26209 -0.912265 -0.314771 133 124 133
0.424805 0.176923 0.430664 -0.152223 -0.927664 -0.340981 138 131 142
0.427215 0.172852 0.436523 -0.226586 -0.894482 -0.385436 129 121 131
0.424805 0.174441 0.436523 -0.170632 -0.91306 -0.370413 135 127 137
0.424805 0.172852 0.43964 -0.191789 -0.898761 -0.394265 134 126 136
0.424805 0.183052 0.413086 -0.145829 -0.916524 -0.372448 150 142 155
0.424805 0.181746 0.418945 -0.145004 -0.924012 -0.353802 148 140 152
0.425764 0.178711 0.424805 -0.155685 -0.932772 -0.325114 139 132 144
0.424805 0.179707 0.424805 -0.141506 -0.933942 -0.328221 143 136 148
0.424805 0.178711 0.426487 -0.146108 -0.928231 -0.34211 141 134 146
0.427887 0.18457 0.407227 -0.233942 -0.890066 -0.391221 141 134 145
0.424805 0.187967 0.407227 -0.157358 -0.893874 -0.419794 157 150 164
0.424805 0.18457 0.409801 -0.133923 -0.889024 -0.437837 152 144 156
0.430664 0.160751 0.46582 -0.239883 -0.919597 -0.311123 122 112 119
0.430664 0.166719 0.448242 -0.168098 -0.928839 -0.330153 121 114 122
0.430664 0.164662 0.454102 -0.188763 -0.920493 -0.342142 120 113 120
0.430664 0.162678 0.459961 -0.240771 -0.922137 -0.302808 121 113 120
0.430664 0.161133 0.464207 -0.249429 -0.918227 -0.307642 121 112 120
0.430664 0.170829 0.436523 -0.167232 -0.905258 -0.390565 122 114 123
0.430664 0.168588 0.442383 -0.176089 -0.91585 -0.360847 121 114 122
0.430664 0.166992 0.44742 -0.16742 -0.932271 -0.320688 121 114 122
0.430664 0.175534 0.424805 -0.154998 -0.921121 -0.357087 125 118 127
0.430664 0.174046 0.430664 -0.162742 -0.919978 -0.356588 123 116 125
0.430664 0.172852 0.433182 -0.167954 -0.901854 -0.398058 122 115 124
0.430664 0.18299 0.407227 -0.297022 -0.887577 -0.352116 130 123 133
0.430664 0.180761 0.413086 -0.178443 -0.919345 -0.350661 129 122 132
0.430707 0.178711 0.418945 -0.14989 -0.930437 -0.334395 128 121 130
0.430664 0.178727 0.418945 -0.14989 -0.930437 -0.334395 128 121 131
0.430664 0.178711 0.418967 -0.14989 -0.930437 -0.334395 128 121 131
0.43503 0.18457 0.395508 -0.186436 -0.947129 -0.26113 120 114 126
0.431317 0.18457 0.401367 -0.302463 -0.882524 -0.360094 127 120 131
0.430664 0.185852 0.401367 -0.320241 -0.857099 -0.403519 132 126 137
0.430664 0.18457 0.402636 -0.293645 -0.888918 -0.351565 130 123 133
0.436523 0.159772 0.46582 -0.159859 -0.937694 -0.308504 115 106 113
0.436523 0.165825 0.448242 -0.0380027 -0.936327 -0.349067 113 107 115
0.436523 0.163614 0.454102 -0.0762455 -0.924967 -0.372322 113 106 113
0.436523 0.161577 0.459961 -0.109624 -0.92712 -0.358374 114 106 113
0.436523 0.161133 0.461094 -0.132876 -0.919268 -0.370528 114 106 113
0.436523 0.171343 0.436523 -0.0418081 -0.92133 -0.386527 112 105 113
0.436523 0.168484 0.442383 -0.0447892 -0.929453 -0.366211 113 107 114
0.436523 0.166992 0.445381 -0.0334635 -0.943719 -0.329052 113 107 115
0.438995 0.166992 0.448242 0.0113941 -0.929986 -0.367417 113 107 115
0.436523 0.177163 0.418945 -0.0259189 -0.939776 -0.340807 113 107 116
0.436523 0.175874 0.424805 -0.0233296 -0.933891 -0.356795 113 107 115
0.436523 0.174085 0.430664 -0.0537699 -0.929908 -0.363841 112 106 114
0.436523 0.172852 0.43369 -0.0715634 -0.918209 -0.389578 112 105 113
0.436523 0.183991 0.395508 -0.139181 -0.965009 -0.22223 116 111 121
0.436523 0.182708 0.401367 -0.195064 -0.918593 -0.343712 115 108 117
0.436523 0.182425 0.407227 -0.136655 -0.948433 -0.286007 115 109 117
0.436523 0.180298 0.413086 -0.0584391 -0.936882 -0.344728 114 107 116
0.436523 0.178711 0.415657 -0.0334444 -0.949889 -0.310793 113 107 115
0.442238 0.178711 0.418945 0.0798651 -0.931805 -0.354064 110 105 113
0.436523 0.18457 0.394927 -0.117822 -0.98792 -0.100661 116 111 121
0.440447 0.18457 0.395508 -0.0517173 -0.975828 -0.212335 115 111 121
0.442383 0.159659 0.46582 -0.103975 -0.930636 -0.350864 114 106 112
0.442383 0.16617 0.454102 0.0106637 -0.915522 -0.402127 111 106 114
0.447224 0.161133 0.459961 -0.0650773 -0.889335 -0.452601 113 106 113
0.442383 0.161835 0.459961 -0.0547289 -0.913197 -0.403826 113 106 113
0.442383 0.161133 0.461146 -0.0547289 -0.913197 -0.403826 113 106 113
0.442383 0.172179 0.436523 0.0126544 -0.920175 -0.391302 109 103 111
0.442383 0.169633 0.442383 0.0288492 -0.93725 -0.347462 111 105 113
0.442383 0.168251 0.448242 0.0237137 -0.92993 -0.366971 112 107 115
0.442383 0.166992 0.452665 0.0115833 -0.913045 -0.407693 112 107 114
0.442383 0.176787 0.424805 0.0577234 -0.922856 -0.380795 110 106 114
0.442383 0.175352 0.430664 0.0398594 -0.915939 -0.399334 109 104 112
0.442383 0.172852 0.435651 0.0126544 -0.920175 -0.391302 108 103 111
0.442383 0.1834 0.37793 0.0514222 -0.996936 -0.0589414 114 111 121
0.442383 0.183756 0.401367 -0.0113011 -0.95571 -0.294091 111 107 115
0.442383 0.182739 0.407227 0.0319385 -0.966685 -0.253969 112 107 115
0.442383 0.181419 0.413086 0.0542421 -0.953505 -0.296456 111 106 114
0.442383 0.178753 0.418945 0.0798651 -0.931805 -0.354064 110 105 113
0.442383 0.178711 0.419089 0.0798651 -0.931805 -0.354064 110 105 113
0.444508 0.18457 0.37793 0.0700154 -0.994881 -0.0728731 115 113 123
0.442383 0.18457 0.379759 0.0514222 -0.996936 -0.0589414 114 110 120
0.442383 0.189703 0.389648 0.0130698 -0.999018 -0.0423369 115 116 126
0.442383 0.185821 0.395508 -0.0365929 -0.972282 -0.230931 114 111 121
0.442383 0.18457 0.396617 -0.0528512 -0.944523 -0.324166 114 110 120
0.453793 0.0966797 0.389648 -0.975875 0.196305 -0.0955668 54 52 51
0.448242 0.161024 0.459961 -0.063784 -0.890658 -0.450179 113 106 113
0.448242 0.158834 0.46582 -0.101655 -0.909065 -0.404063 113 106 112
0.448242 0.166137 0.454102 -0.006758 -0.89687 -0.442243 111 106 113
0.448242 0.161133 0.459687 -0.0650773 -0.889335 -0.452601 113 106 113
0.448242 0.171333 0.436523 0.0121511 -0.920854 -0.389718 109 104 113
0.448242 0.168785 0.442383 0.0197093 -0.943892 -0.329666 112 107 115
0.452791 0.166992 0.448242 -0.0223441 -0.906775 -0.421022 112 108 117
0.448242 0.168514 0.448242 0.0253259 -0.918239 -0.395215 112 108 116
0.448242 0.166992 0.453221 0.00507228 -0.900219 -0.435407 111 106 113
0.448242 0.177674 0.424805 0.0615164 -0.913948 -0.401142 110 106 115
0.448242 0.174187 0.430664 0.0323192 -0.910294 -0.412698 108 103 112
0.448242 0.172852 0.433226 0.029519 -0.913095 -0.406677 107 103 111
0.448242 0.184445 0.401367 0.0634967 -0.961191 -0.268478 111 107 116
0.448242 0.183212 0.407227 0.0582064 -0.965561 -0.253582 110 107 115
0.448242 0.183326 0.413086 0.0770956 -0.958307 -0.275143 111 108 116
0.448242 0.180903 0.418945 0.0773749 -0.926506 -0.368239 109 105 114
0.448242 0.178711 0.42289 0.0649068 -0.917326 -0.392809 110 106 114
0.448242 0.18845 0.389648 0.100471 -0.987829 -0.118744 114 113 123
0.448242 0.187826 0.395508 0.0746302 -0.960764 -0.267138 112 110 120
0.448242 0.18457 0.400912 0.0634967 -0.961191 -0.268478 111 107 116
0.453999 0.18457 0.401367 0.0577416 -0.948039 -0.31287 109 107 116
0.456796 0.0966797 0.37793 -0.96198 -0.129728 -0.240343 53 52 52
0.455945 0.0966797 0.383789 -0.981296 0.0486406 -0.186258 51 50 49
0.454102 0.0966797 0.388482 -0.976096 0.190815 -0.104046 55 53 52
0.454102 0.0972846 0.389648 -0.971296 0.22811 -0.0674608 52 51 50
0.454102 0.0966797 0.394336 -0.968604 0.248552 0.0053986 47 46 45
0.454229 0.0966797 0.395508 -0.970901 0.23948 0.00017844 45 44 43
0.455114 0.0966797 0.401367 -0.94671 0.308296 0.0932416 40 39 37
0.455715 0.0966797 0.407227 -0.895314 0.432975 0.104626 40 39 37
0.456724 0.0966797 0.413086 -0.830278 0.539675 0.139244 33 33 31
0.45842 0.0966797 0.418945 -0.746404 0.63877 0.186694 31 32 30
0.457414 0.102539 0.37793 -0.985116 0.162698 -0.0554695 37 36 37
0.457422 0.102539 0.383789 -0.9621 0.271919 -0.0205856 37 36 37
0.456932 0.102539 0.389648 -0.936937 0.349495 0.00146269 40 39 39
0.457078 0.102539 0.395508 -0.873808 0.471205 0.120102 40 39 38
0.457064 0.102539 0.401367 -0.825769 0.531061 0.189945 40 39 38
0.458135 0.108398 0.37793 -0.938735 0.325468 0.113344 38 38 39
0.458896 0.108398 0.383789 -0.897987 0.425612 0.111686 35 35 36
0.459526 0.108398 0.389648 -0.858818 0.480274 0.178236 32 32 33
0.454102 0.160152 0.459961 -0.0849325 -0.883702 -0.46028 113 107 115
0.454102 0.157874 0.46582 -0.0879753 -0.895457 -0.436368 114 107 115
0.454102 0.16647 0.448242 -0.0379722 -0.907221 -0.418936 112 108 117
0.454102 0.164601 0.454102 -0.0593653 -0.877794 -0.475346 112 107 116
0.454102 0.161133 0.458751 -0.0845959 -0.871287 -0.483428 113 107 115
0.454102 0.171618 0.436523 -0.00618071 -0.917858 -0.39686 108 104 113
0.454102 0.169462 0.442383 -0.016866 -0.941724 -0.335965 110 106 115
0.454102 0.166992 0.447008 -0.0450422 -0.913267 -0.404865 112 108 117
0.455928 0.166992 0.448242 -0.062162 -0.90495 -0.420952 111 107 116
0.454102 0.177506 0.424805 0.0153627 -0.908083 -0.418508 109 106 115
0.454102 0.173251 0.430664 -0.0164488 -0.899291 -0.43704 107 103 112
0.454102 0.172852 0.431576 -0.0164488 -0.899291 -0.43704 107 103 112
0.454102 0.183349 0.407227 0.0236206 -0.96964 -0.243392 110 107 117
0.454102 0.181206 0.413086 0.022456 -0.962454 -0.270514 110 106 116
0.454102 0.180777 0.418945 0.01678 -0.929231 -0.369117 111 107 116
0.454102 0.178711 0.423409 0.00431539 -0.911192 -0.411959 110 107 116
0.454102 0.188133 0.389648 0.146653 -0.979514 -0.138002 111 111 122
0.454102 0.186896 0.395508 0.0840041 -0.923731 -0.373717 108 107 117
0.45418 0.18457 0.401367 0.0577416 -0.948039 -0.31287 109 106 116
0.454102 0.184573 0.401367 0.0577416 -0.948039 -0.31287 109 107 116
0.454102 0.18457 0.401378 0.0577416 -0.948039 -0.31287 109 107 116
0.459961 0.102272 0.407227 -0.787206 0.57845 0.213778 32 32 30
0.459961 0.0998074 0.413086 -0.766664 0.60537 0.213899 26 27 25
0.459961 0.0981363 0.418945 -0.720371 0.660432 0.211884 27 29 27
0.459961 0.0966797 0.423066 -0.724928 0.66004 0.197046 27 29 27
0.46077 0.0966797 0.424805 -0.631255 0.735652 0.24563 26 28 26
0.463033 0.0966797 0.430664 -0.586833 0.789233 0.180937 24 27 26
0.464774 0.0966797 0.442383 -0.510503 0.859874 0.00198419 31 35 31
0.465196 0.0966797 0.448242 -0.533736 0.843578 -0.0591836 22 27 24
0.46454 0.0966797 0.454102 -0.697561 0.716237 -0.0203173 21 25 23
0.464543 0.0966797 0.459961 -0.742467 0.669499 0.0226574 23 27 24
0.465681 0.0966797 0.46582 -0.776319 0.629958 0.0219619 25 30 28
0.459961 0.107327 0.395508 -0.806242 0.558622 0.19472 31 31 32
0.459961 0.104506 0.401367 -0.790382 0.574679 0.212227 34 33 33
0.459961 0.102539 0.406762 -0.79143 0.575183 0.206888 32 32 30
0.460171 0.102539 0.407227 -0.787206 0.57845 0.213778 32 32 30
0.462334 0.102539 0.413086 -0.756034 0.610259 0.236637 24 25 24
0.464395 0.102539 0.418945 -0.704468 0.647185 0.291334 25 29 26
0.459961 0.114027 0.37793 -0.879614 0.44348 0.172059 31 31 33
0.459961 0.110549 0.383789 -0.865225 0.458148 0.203681 32 32 33
0.459961 0.108854 0.389648 -0.844247 0.501481 0.189114 31 31 32
0.459961 0.108398 0.391408 -0.847163 0.507283 0.158048 31 31 32
