ply
format ascii 1.0
comment Created by Open3D
element vertex 715
property double x
property double y
property double z
property double nx
property double ny
property double nz
property uchar red
property uchar green
property uchar blue
end_header
1.14551 -0.0791016 0.422736 0.748277 -0.529082 -0.400192 96 96 92
1.14551 -0.075608 0.442383 0.0856064 0.529141 0.844205 84 80 75
1.14551 -0.0791016 0.452094 -0.461324 0.790509 0.402835 104 101 98
1.14573 -0.0791016 0.454102 -0.187941 0.856011 0.481584 107 103 99
1.14551 -0.0732422 0.405609 0.737264 -0.62427 -0.25832 70 70 63
1.14716 -0.0732422 0.407227 0.797838 -0.534878 -0.278137 75 75 68
1.14551 -0.0725602 0.407227 0.808034 -0.523112 -0.270988 70 70 62
1.14551 -0.0732422 0.408302 0.728777 -0.60557 -0.319641 69 69 62
1.14551 -0.0685386 0.418945 0.942256 0.26795 0.200891 72 69 65
1.15 -0.0732422 0.424805 0.833305 0.458607 -0.308677 79 79 72
1.1495 -0.0732422 0.436523 0.599542 0.609814 0.51834 83 79 75
1.14551 -0.0732422 0.441111 0.327331 0.635619 0.699173 76 70 64
1.14551 -0.0647243 0.395508 0.71908 0.176223 -0.672212 70 72 67
1.14551 -0.0643745 0.401367 0.696554 0.50403 -0.510653 65 67 62
1.14551 -0.0632636 0.407227 0.750403 0.629121 -0.202737 65 65 61
1.14551 -0.0621281 0.413086 0.82226 0.567918 0.0368367 66 65 61
1.14551 -0.0673828 0.417011 0.928785 0.359422 0.0904099 74 70 67
1.14551 -0.0565591 0.430664 0.945093 0.261519 -0.195977 64 63 60
1.14551 -0.0556641 0.428266 0.936875 0.256618 -0.237513 67 65 62
1.14675 -0.0556641 0.430664 0.945093 0.261519 -0.195977 66 64 61
1.14551 -0.0524565 0.430664 0.736896 0.672791 -0.0658506 75 74 72
1.14551 -0.0556641 0.436509 0.744522 0.472034 0.472093 69 68 66
1.14551 -0.0330569 0.46582 0.072613 -0.95019 -0.303096 32 30 27
1.14551 -0.0266237 0.448242 0.129117 -0.931763 -0.339332 31 29 27
1.14551 -0.0295103 0.454102 0.0895901 -0.945875 -0.31192 32 29 27
1.14551 -0.0308414 0.459961 0.066601 -0.956276 -0.28478 32 30 27
1.14551 -0.0322266 0.463709 0.0709624 -0.946552 -0.314647 32 30 27
1.14977 -0.0322266 0.46582 -0.00276659 -0.955357 -0.29544 32 30 27
1.14551 -0.0214871 0.436523 0.0658402 -0.900895 -0.429014 28 26 24
1.14551 -0.0248902 0.442383 0.112561 -0.910168 -0.398654 30 28 26
1.14551 -0.0263672 0.447112 0.13512 -0.931658 -0.337278 31 29 27
1.14551 -0.0149166 0.424805 0.00978767 -0.909272 -0.416087 28 26 23
1.14551 -0.0181186 0.430664 0.0385839 -0.900545 -0.433048 28 26 24
1.14551 -0.0205078 0.434715 0.087623 -0.889419 -0.448615 28 26 24
1.14551 -0.00975574 0.407227 0.00510551 -0.941593 -0.336716 26 24 22
1.14551 -0.0105392 0.413086 -0.0386977 -0.949422 -0.311609 27 24 22
1.15108 -0.0146484 0.418945 -0.0927987 -0.934183 -0.344514 26 23 21
1.14551 -0.0121306 0.418945 -0.0233086 -0.943105 -0.331677 27 25 22
1.14551 -0.0146484 0.424393 0.00978767 -0.909272 -0.416087 28 26 23
1.14551 -0.00534223 0.395508 0.0472339 -0.87769 -0.476895 27 24 22
1.14835 -0.00878906 0.401367 0.0852344 -0.901606 -0.424078 26 23 21
1.14551 -0.00835886 0.401367 0.0340655 -0.906512 -0.420803 27 23 22
1.14551 -0.00878906 0.402571 0.0340655 -0.906512 -0.420803 27 24 22
1.14551 0.00143993 0.383789 0.0734439 -0.901628 -0.426231 24 22 19
1.14551 -0.00165183 0.389648 0.0544973 -0.89291 -0.446925 26 23 21
1.14551 -0.00292969 0.391798 0.0461513 -0.889695 -0.454218 27 23 22
1.15137 -0.0878025 0.46582 -0.418501 -0.907872 -0.0249812 106 102 100
1.15137 -0.0742206 0.436523 0.696659 0.499364 0.515074 85 82 79
1.15137 -0.0732422 0.423041 0.930514 0.219869 -0.292918 81 81 75
1.15137 -0.0732422 0.427641 0.698933 0.653446 -0.290691 82 81 73
1.1564 -0.0732422 0.430664 0.973449 0.228418 0.0148742 91 91 83
1.15137 -0.0732422 0.433218 0.740694 0.611955 0.277278 85 82 76
1.15409 -0.0732422 0.436523 0.696659 0.499364 0.515074 93 90 86
1.15137 -0.0656191 0.401367 0.766682 0.571641 -0.292277 82 83 78
1.15137 -0.0647513 0.407227 0.974778 0.183008 -0.127732 79 78 74
1.15137 -0.0267323 0.448242 0.0122928 -0.928956 -0.369986 31 27 26
1.15137 -0.0281359 0.454102 -0.00950105 -0.939261 -0.343072 31 28 26
1.15685 -0.0322266 0.459961 -0.259769 -0.891798 -0.370428 30 27 24
1.15137 -0.0291023 0.459961 -0.0615665 -0.949161 -0.308712 31 28 26
1.15255 -0.0322266 0.46582 -0.14381 -0.949856 -0.277654 32 29 27
1.15137 -0.031838 0.46582 -0.121459 -0.956219 -0.266257 32 30 27
1.15137 -0.0322266 0.467552 -0.104105 -0.954745 -0.27861 32 30 27
1.15137 -0.0229047 0.436523 0.0109755 -0.92752 -0.373612 29 26 25
1.15137 -0.0235797 0.442383 0.0316609 -0.927978 -0.371288 28 26 24
1.15137 -0.0263672 0.447751 0.0122928 -0.928956 -0.369986 30 27 26
1.15137 -0.0147721 0.418945 -0.0873786 -0.931341 -0.353511 26 23 21
1.15137 -0.017229 0.424805 -0.0948807 -0.925979 -0.365459 26 24 22
1.15445 -0.0205078 0.430664 -0.0721025 -0.919281 -0.386942 37 33 32
1.15137 -0.020005 0.430664 -0.0415718 -0.912768 -0.406357 27 24 22
1.15137 -0.0205078 0.43143 -0.0415718 -0.912768 -0.406357 27 24 23
1.15137 -0.00924059 0.401367 0.091205 -0.879669 -0.466758 27 24 21
1.15137 -0.0106279 0.407227 -0.0143673 -0.925691 -0.378009 25 22 20
1.15691 -0.0146484 0.413086 0.0392597 -0.892151 -0.450029 49 41 41
1.15137 -0.0128852 0.413086 -0.0921986 -0.946492 -0.309276 26 23 21
1.15137 -0.0146484 0.418639 -0.0840841 -0.933569 -0.348394 26 23 21
1.15137 -0.00599064 0.395508 0.065787 -0.890438 -0.450325 27 24 21
1.15137 -0.00878906 0.40033 0.0913533 -0.90525 -0.414941 26 23 20
1.15275 -0.00878906 0.401367 0.170753 -0.864198 -0.473291 47 43 41
1.15137 0.00095799 0.383789 0.0628757 -0.897088 -0.437356 28 25 22
1.15137 -0.00107539 0.389648 0.0515093 -0.878045 -0.475798 24 21 18
1.15137 -0.00292969 0.393154 0.0373989 -0.876107 -0.480665 24 22 19
1.15137 -0.000189452 0.448242 -0.781831 0.558781 -0.276594 27 23 22
1.15723 -0.0732422 0.431242 -0.955081 -0.261699 -0.139045 93 93 85
1.15723 -0.0732422 0.441274 0.695415 0.496957 0.519068 106 102 98
1.15723 -0.0325094 0.459961 -0.274274 -0.895628 -0.350179 31 28 25
1.16051 -0.0380859 0.46582 -0.337692 -0.914593 -0.222449 71 66 63
1.15723 -0.0341962 0.46582 -0.283831 -0.914237 -0.289155 31 27 25
1.15723 -0.0272799 0.448242 -0.053092 -0.924531 -0.37739 32 27 25
1.15723 -0.0287884 0.454102 -0.18477 -0.901771 -0.390729 30 26 24
1.15723 -0.0322266 0.459593 -0.246251 -0.894446 -0.373264 30 27 24
1.15723 -0.0207416 0.430664 -0.0868675 -0.916263 -0.391046 47 42 40
1.15723 -0.0227642 0.436523 -0.0628145 -0.925787 -0.37279 37 32 30
1.15723 -0.0245425 0.442383 -0.0604737 -0.936142 -0.346383 35 31 29
1.15723 -0.0263672 0.446779 -0.053092 -0.924531 -0.37739 31 27 25
1.15723 -0.0147434 0.413086 0.0392597 -0.892151 -0.450029 51 43 42
1.15723 -0.0158982 0.418945 -0.127732 -0.922719 -0.363695 55 47 47
1.15723 -0.0173862 0.424805 -0.119663 -0.933787 -0.337227 39 33 32
1.15723 -0.0205078 0.430021 -0.0760729 -0.919919 -0.384658 47 42 40
1.15723 -0.0097665 0.407227 0.263447 -0.855274 -0.446208 102 93 92
1.15723 -0.0146484 0.412945 0.0392597 -0.892151 -0.450029 50 42 42
1.15737 -0.0146484 0.413086 0.0392597 -0.892151 -0.450029 50 42 42
1.15723 -0.00334677 0.395508 0.259335 -0.882618 -0.392086 80 72 69
1.15723 -0.00732036 0.401367 0.331354 -0.816423 -0.472924 106 97 96
1.15723 -0.00878906 0.403891 0.288544 -0.853287 -0.434331 116 107 106
1.15723 -0.000659947 0.383789 0.137079 -0.867516 -0.478147 78 69 64
1.15723 -0.00118483 0.389648 0.172495 -0.878591 -0.445335 82 75 71
1.15723 -0.00292969 0.394687 0.259215 -0.881925 -0.393721 79 71 67
1.16019 -0.00292969 0.407227 0.343979 -0.809391 -0.475988 65 58 57
1.15723 -0.00119746 0.448242 -0.717363 0.649395 -0.252344 22 21 18
1.15723 -0.00106868 0.454102 -0.628987 0.533753 -0.565228 24 22 19
1.15723 -0.00115979 0.459961 -0.761977 0.50255 -0.408453 24 22 20
1.15723 0.000125319 0.46582 -0.850594 0.414463 -0.32359 26 24 21
1.16309 -0.0391439 0.46582 -0.269854 -0.943033 -0.194597 102 96 93
1.16806 -0.0380859 0.454102 -0.0801773 -0.824668 -0.559905 106 98 95
1.16309 -0.0345545 0.459961 -0.335945 -0.862485 -0.378497 104 98 95
1.16309 -0.0380859 0.463444 -0.34294 -0.916489 -0.206012 102 95 93
1.16309 -0.02822 0.448242 -0.0870873 -0.808675 -0.581774 101 95 92
1.16309 -0.0314542 0.454102 -0.220563 -0.762357 -0.608411 101 95 92
1.16309 -0.0322266 0.455573 -0.300637 -0.805578 -0.510551 103 97 94
1.16309 -0.0209007 0.430664 -0.0739913 -0.906079 -0.416588 106 98 96
1.16309 -0.0223566 0.436523 -0.101369 -0.919595 -0.379564 105 98 96
1.16309 -0.0238427 0.442383 -0.094459 -0.942149 -0.32161 101 94 92
1.16309 -0.0263672 0.446067 -0.0661231 -0.917196 -0.392912 102 96 93
1.16309 -0.0147402 0.418945 0.206892 -0.803554 -0.558119 53 41 42
1.16309 -0.0167486 0.424805 0.0154226 -0.931192 -0.364203 75 64 64
1.16309 -0.0205078 0.429648 -0.0366331 -0.905978 -0.421736 106 98 96
1.16309 -0.0146484 0.418855 0.206892 -0.803554 -0.558119 52 40 41
1.16309 -0.00772749 0.401367 0.296824 -0.816813 -0.494683 87 83 82
1.16309 -0.00292969 0.405092 0.579359 -0.650979 -0.490479 84 80 77
1.16309 -0.00154071 0.407227 0.721535 -0.532191 -0.442899 83 78 75
1.16309 -0.00292969 0.410479 0.589091 -0.699969 -0.403751 85 81 78
1.16834 -0.00292969 0.418945 -0.77965 0.385843 0.493224 84 80 77
1.16557 -0.00292969 0.424805 0.702762 -0.40806 -0.582763 65 60 58
1.16895 -0.0385828 0.454102 0.231608 -0.798116 -0.55621 106 99 96
1.16895 -0.0401086 0.46582 0.311226 -0.949951 -0.0270566 105 98 95
1.16895 -0.0380859 0.453544 0.143432 -0.789857 -0.596283 106 99 96
1.1713 -0.0380859 0.454102 0.303783 -0.781703 -0.544662 110 101 98
1.16895 -0.0359874 0.454102 0.253474 -0.777353 -0.575736 107 99 96
1.16895 -0.0380859 0.455885 0.289896 -0.901362 -0.321726 107 100 97
1.17393 -0.0380859 0.459961 0.482991 -0.869746 -0.101298 116 106 103
1.16895 -0.0346237 0.459961 0.31624 -0.932953 -0.172017 107 100 97
1.16895 -0.0380859 0.462025 0.318287 -0.94791 -0.012681 108 101 98
1.1715 -0.0380859 0.46582 0.350534 -0.936533 -0.00572117 106 98 95
1.16895 -0.0278529 0.448242 0.0255679 -0.811113 -0.584331 105 97 94
1.16895 -0.0299194 0.454102 0.1192 -0.734614 -0.667932 106 98 95
1.16895 -0.0322266 0.457213 0.546527 -0.713728 -0.438064 106 98 96
1.17405 -0.0322266 0.46582 0.439178 -0.885594 -0.151152 102 95 92
1.16895 -0.0212771 0.430664 -0.0511979 -0.894151 -0.444829 105 97 96
1.17342 -0.0263672 0.436523 0.0142327 -0.927314 -0.374014 102 95 93
1.16895 -0.0234563 0.436523 -0.065136 -0.922494 -0.380476 109 100 99
1.17039 -0.0263672 0.442383 -0.0190573 -0.952015 -0.305457 103 94 92
1.16895 -0.0255478 0.442383 -0.0364117 -0.956697 -0.288801 104 95 94
1.16895 -0.0263672 0.444436 -0.0208763 -0.935144 -0.353652 104 95 93
1.1721 -0.0263672 0.448242 0.0921229 -0.883421 -0.459436 104 95 93
1.16895 -0.0188707 0.418945 0.159305 -0.824083 -0.543608 100 93 91
1.16895 -0.0178192 0.424805 0.127426 -0.805314 -0.578992 91 81 80
1.16895 -0.0205078 0.427782 -0.0500295 -0.893932 -0.445402 104 97 95
1.16895 -0.0146484 0.416397 0.594325 -0.532025 -0.603098 96 90 86
1.17227 -0.0146484 0.418945 0.459383 -0.635216 -0.62086 94 88 86
1.16895 0.000668528 0.424805 0.855792 -0.151051 -0.494775 83 79 78
1.17139 -0.00292969 0.436523 0.743423 -0.611115 0.271772 83 79 78
1.1748 -0.038314 0.459961 0.482991 -0.869746 -0.101298 117 107 103
1.1748 -0.0380859 0.458723 0.482991 -0.869746 -0.101298 117 107 103
1.1748 -0.0380859 0.460362 0.482991 -0.869746 -0.101298 116 106 102
1.1748 -0.0269215 0.436523 0.0241099 -0.928643 -0.370189 101 94 91
1.1748 -0.0280168 0.442383 0.0748355 -0.895813 -0.438084 101 94 91
1.1748 -0.0292337 0.454102 0.419384 -0.72763 -0.542836 108 99 96
1.1748 -0.0322266 0.456902 0.696481 -0.603563 -0.388106 108 99 97
1.17779 -0.0322266 0.459961 0.655272 -0.728738 -0.198894 106 97 94
1.1748 -0.0322266 0.464045 0.456459 -0.878821 -0.138989 104 96 93
1.17641 -0.0322266 0.46582 0.580492 -0.810188 -0.0813872 104 96 93
1.1748 -0.0317754 0.46582 0.478866 -0.866541 -0.140693 103 95 92
1.1748 -0.0322266 0.466453 0.526797 -0.844665 -0.0950044 102 95 92
1.1748 -0.0205901 0.430664 -0.0356883 -0.910011 -0.413045 103 94 93
1.1748 -0.0263672 0.435802 0.0142327 -0.927314 -0.374014 101 94 91
1.17757 -0.0263672 0.442383 0.0316033 -0.918569 -0.393995 102 94 91
1.1748 -0.0263672 0.446234 0.13397 -0.883692 -0.448488 102 94 92
1.1748 -0.0254853 0.448242 0.11221 -0.906595 -0.40681 104 95 93
1.1748 -0.0263672 0.451309 0.205238 -0.793936 -0.572314 104 96 93
1.1748 -0.0152268 0.424805 0.684253 -0.327455 -0.651592 99 91 90
1.1748 -0.0205078 0.430489 -0.0356883 -0.910011 -0.413045 103 94 93
1.1748 -0.0146484 0.42404 0.709297 -0.323433 -0.626329 98 91 89
1.1748 0.000738048 0.436523 0.823766 0.470734 -0.315942 85 81 79
1.1748 -0.000520005 0.442383 0.98203 0.185764 0.033286 88 86 82
1.18066 -0.0302354 0.454102 0.55447 -0.763999 -0.329952 102 95 92
1.18066 -0.0315088 0.459961 0.655317 -0.71946 -0.23008 104 97 93
1.18066 -0.0322266 0.462627 0.642359 -0.741937 -0.192105 106 97 93
1.18066 -0.0259445 0.448242 0.207255 -0.883666 -0.419737 104 95 94
1.18066 -0.0263672 0.448546 0.394022 -0.825233 -0.404645 104 95 94
1.18066 -0.00596927 0.448242 0.986944 0.126482 -0.0997236 92 85 84
1.18066 -0.00534664 0.454102 0.885906 0.264235 0.381248 90 85 82
1.18066 0.00135049 0.454102 -0.892721 -0.331639 -0.305064 86 82 79
0.665039 -0.131836 0.569628 -0.104637 -0.953111 -0.283957 118 128 127
0.665913 -0.131836 0.571289 -0.116599 -0.952991 -0.279666 117 128 127
0.665039 -0.131248 0.571289 -0.116599 -0.952991 -0.279666 117 128 127
0.670898 -0.131836 0.576799 -0.116599 -0.952991 -0.279666 115 126 126
0.671222 -0.131836 0.577148 -0.132556 -0.948037 -0.289233 115 126 126
0.670898 -0.131633 0.577148 -0.116599 -0.952991 -0.279666 115 126 126
0.734483 -0.102539 0.56543 0.289442 -0.812617 -0.505842 115 121 121
0.735352 -0.103653 0.56543 0.177383 -0.851571 -0.493317 113 121 120
0.739527 -0.102539 0.56543 0.244306 -0.848895 -0.468713 113 119 119
0.735352 -0.101604 0.56543 0.289442 -0.812617 -0.505842 120 124 124
0.735352 -0.102539 0.567651 0.289442 -0.812617 -0.505842 114 121 121
0.324414 0.131836 0.571289 0.912543 0.403755 0.065177 132 120 120
0.325133 0.137695 0.56543 0.886832 0.461481 -0.0237361 131 120 119
0.325195 0.130974 0.571289 0.912543 0.403755 0.065177 132 120 121
0.325195 0.137643 0.56543 0.886832 0.461481 -0.0237361 131 120 119
0.325195 0.131836 0.570442 0.912543 0.403755 0.065177 134 122 122
0.32619 0.131836 0.571289 0.912543 0.403755 0.065177 139 125 125
0.325195 0.134996 0.571289 0.912543 0.403755 0.065177 134 120 121
0.325195 0.131836 0.572208 0.912543 0.403755 0.065177 136 123 123
0.325329 0.137695 0.56543 0.886832 0.461481 -0.0237361 131 120 119
0.325195 0.137768 0.56543 0.886832 0.461481 -0.0237361 131 120 119
0.325195 0.137695 0.565771 0.886832 0.461481 -0.0237361 131 120 119
0.266602 -0.143555 0.39122 -0.378843 -0.0750864 0.92241 153 152 146
0.27832 -0.131836 0.401411 0.410815 0.435999 -0.80071 149 152 144
0.307617 -0.108398 0.466053 0.967291 0.244462 -0.0677179 144 142 138
0.331877 -0.18457 0.407227 -0.81324 0.274925 -0.512892 160 164 156
0.336914 -0.18457 0.405793 -0.794126 0.282831 -0.537932 160 164 156
0.341138 -0.155273 0.418945 -0.0516398 0.30403 -0.951262 157 156 149
0.342773 -0.18457 0.401761 -0.796866 0.279499 -0.535616 163 166 158
0.347225 -0.161133 0.430664 0.198433 -0.0929701 0.975695 155 156 153
0.347775 -0.161133 0.436523 0.197082 -0.256172 -0.946327 157 158 154
0.342773 -0.161133 0.442381 -0.555829 0.402914 0.727128 153 155 149
0.34683 -0.155273 0.413086 -0.0516398 0.30403 -0.951262 157 157 152
0.342773 -0.155273 0.417409 -0.0516398 0.30403 -0.951262 158 157 151
0.348633 -0.161133 0.428702 0.417219 -0.516705 0.747626 156 156 153
0.348633 -0.159765 0.430664 0.417219 -0.516705 0.747626 155 156 152
0.352648 -0.155273 0.424805 0.417219 -0.516705 0.747626 154 155 149
0.3497 -0.149414 0.407227 0.0321123 0.226241 -0.973542 153 152 147
0.354492 -0.157958 0.424805 0.417219 -0.516705 0.747626 156 155 151
0.355358 -0.155273 0.407227 -0.186889 0.431504 -0.88254 158 156 152
0.354492 -0.155273 0.422139 0.417219 -0.516705 0.747626 155 156 150
0.354492 -0.149414 0.404327 -0.186889 0.431504 -0.88254 155 154 148
0.360352 -0.150918 0.407227 -0.186889 0.431504 -0.88254 158 155 150
0.360352 -0.155273 0.411788 0.560066 -0.517743 0.646737 159 157 153
0.360352 -0.149414 0.405519 -0.186889 0.431504 -0.88254 157 155 149
0.56543 0.00826419 0.383789 0.499179 -0.79392 -0.347147 204 202 213
0.56543 0.00643175 0.389648 0.456831 -0.820027 -0.344763 208 208 218
0.56543 0.00327068 0.395508 0.4468 -0.783973 -0.430995 227 225 234
0.56543 0.00292969 0.396178 0.387566 -0.819722 -0.421722 229 226 235
0.568273 0.00292969 0.401367 0.551792 -0.689066 -0.469801 206 206 212
0.56543 0.0108626 0.37793 0.52 -0.800661 -0.297561 188 186 194
0.56543 0.00878906 0.382696 0.56928 -0.760454 -0.312459 202 200 210
0.566094 0.00878906 0.383789 0.590616 -0.739803 -0.322281 201 199 209
0.568258 0.00878906 0.389648 0.734544 -0.605577 -0.306141 180 180 189
0.569724 0.0205078 0.37793 0.975119 -0.21237 -0.063569 121 114 118
0.570427 0.0205078 0.383789 0.984263 -0.175453 -0.0210544 109 99 104
0.57065 0.0205078 0.389648 0.999924 -0.0122964 -0.00131093 102 95 98
0.570412 0.0205078 0.395508 0.999526 -0.00630148 -0.0301449 103 95 99
0.57092 0.0205078 0.401367 0.989241 0.0796867 -0.122691 92 84 87
0.570728 0.0263672 0.383789 0.998273 -0.0585175 0.00518467 90 85 88
0.570634 0.0263672 0.389648 0.995951 -0.0854122 -0.02805 84 77 80
0.570745 0.0263672 0.395508 0.997649 -0.0675414 -0.0115895 82 75 79
0.571205 0.0263672 0.401367 0.971033 -0.225217 -0.0798287 86 79 82
0.571102 0.0263672 0.407227 0.96685 -0.127151 -0.221437 83 76 79
0.571289 0.00779462 0.395508 0.751097 -0.543948 -0.37413 150 150 158
0.571289 0.00543228 0.401367 0.736181 -0.540296 -0.407576 170 170 175
0.571289 0.00292969 0.404234 0.651755 -0.624065 -0.430997 176 177 182
0.573227 0.00292969 0.407227 0.838552 -0.439321 -0.322223 156 157 161
0.575091 0.00292969 0.413086 0.859602 -0.373769 -0.348398 128 126 131
0.576229 0.00292969 0.418945 0.908558 -0.306841 -0.283497 104 101 104
0.571289 0.0144901 0.37793 0.884132 -0.426219 -0.191435 129 126 129
0.571289 0.0130283 0.383789 0.819812 -0.509708 -0.260972 136 135 139
0.571289 0.0121734 0.389648 0.924017 -0.356803 -0.137418 135 133 138
0.571289 0.00878906 0.394008 0.788588 -0.556682 -0.261216 146 146 154
0.572421 0.00878906 0.395508 0.890957 -0.375707 -0.255029 138 138 145
0.574107 0.00878906 0.401367 0.929545 -0.212915 -0.30102 126 126 130
0.575619 0.00878906 0.407227 0.950137 -0.138445 -0.279417 111 108 113
0.576779 0.00878906 0.413086 0.947553 -0.175591 -0.267043 99 96 100
0.571481 0.0146484 0.37793 0.884132 -0.426219 -0.191435 127 124 127
0.571289 0.0150418 0.37793 0.910954 -0.372992 -0.17618 126 123 126
0.572967 0.0146484 0.383789 0.968094 -0.219755 -0.12042 118 116 119
0.571289 0.0183699 0.383789 0.979502 -0.185201 -0.0792287 108 102 106
0.573172 0.0146484 0.389648 0.986877 -0.126447 -0.100422 116 112 115
0.571289 0.0189306 0.389648 0.999199 0.0292453 -0.0273169 104 98 101
0.572952 0.0146484 0.395508 0.991195 0.0239947 -0.13022 111 106 109
0.571289 0.0179056 0.395508 0.995756 0.0556064 -0.073338 107 100 103
0.57369 0.0146484 0.401367 0.975093 0.050086 -0.216069 106 101 104
0.571289 0.0192181 0.401367 0.981124 0.124171 -0.148247 94 88 90
0.575775 0.0146484 0.407227 0.949086 0.122878 -0.290062 107 103 106
0.571289 0.0254076 0.37793 0.995189 -0.0968287 -0.0149599 107 101 103
0.571289 0.0205078 0.403572 0.967562 0.154828 -0.19963 86 78 80
0.572495 0.0205078 0.407227 0.962472 0.152221 -0.22467 82 73 75
0.571289 0.0249577 0.407227 0.971897 -0.00855686 -0.235249 82 75 77
0.574517 0.0205078 0.413086 0.954801 0.121073 -0.271469 82 72 74
0.576479 0.0205078 0.418945 0.958894 0.145321 -0.24373 90 81 83
0.57174 0.0263672 0.37793 0.995289 -0.0956102 0.0160504 107 102 104
0.571289 0.0263672 0.380144 0.997175 -0.0726301 0.0191303 100 95 97
0.571289 0.0282689 0.383789 0.994442 -0.101412 0.0283123 89 84 87
0.571289 0.0281558 0.389648 0.985622 -0.164203 -0.0398345 81 75 78
0.571289 0.0279621 0.395508 0.970998 -0.234468 -0.0467656 77 71 74
0.571289 0.0265947 0.401367 0.971033 -0.225217 -0.0798287 85 79 82
0.571289 0.0267607 0.407227 0.966874 -0.157993 -0.20048 82 75 78
0.571289 0.0263672 0.408856 0.958748 -0.0210196 -0.283478 80 74 76
0.571949 0.0263672 0.413086 0.967974 -0.0122959 -0.25075 79 72 75
0.572801 0.0263672 0.418945 0.963493 0.102035 -0.247529 77 71 72
0.574009 0.0263672 0.424805 0.969685 0.187645 -0.156524 70 64 65
0.574811 0.0263672 0.430664 0.963448 0.178178 -0.200053 62 57 58
0.575585 0.0263672 0.436523 0.950159 0.217397 -0.223464 42 36 37
0.572359 0.0322266 0.37793 0.984501 -0.174889 0.0131152 86 83 85
0.572659 0.0322266 0.383789 0.97841 -0.206297 -0.0124807 96 92 94
0.572892 0.0322266 0.389648 0.957543 -0.281903 -0.0603471 93 88 90
0.573096 0.0322266 0.395508 0.922135 -0.373426 -0.101098 87 81 83
0.574151 0.0322266 0.401367 0.898897 -0.415724 -0.138411 87 81 82
0.575303 0.0322266 0.407227 0.876753 -0.457104 -0.149534 77 70 72
0.576099 0.0322266 0.413086 0.855509 -0.480228 -0.193609 45 38 39
0.573022 0.0380859 0.37793 0.986 -0.138541 -0.0927885 77 73 75
0.57306 0.0380859 0.383789 0.945436 -0.26999 -0.182362 71 67 68
0.573564 0.0380859 0.389648 0.888752 -0.401466 -0.221236 60 54 56
0.574776 0.0380859 0.395508 0.829664 -0.526898 -0.184489 41 34 35
0.57304 0.0439453 0.37793 0.950906 -0.0570276 -0.30418 62 56 59
0.576515 0.0439453 0.383789 0.904879 -0.176777 -0.387225 28 22 22
0.572186 0.0498047 0.37793 0.933917 -0.185422 -0.305644 82 79 78
0.574403 0.0498047 0.383789 0.873932 -0.213362 -0.436714 52 48 48
0.572994 0.0556641 0.37793 0.891332 -0.388532 -0.2336 22 18 17
0.576991 0.0556641 0.383789 0.714683 -0.561529 -0.417029 31 28 26
0.57621 0.0556641 0.389648 0.676346 -0.404591 -0.615518 21 19 16
0.577148 0.00546853 0.418945 0.92589 -0.248718 -0.284372 96 92 95
0.577148 0.00292969 0.42136 0.904477 -0.317311 -0.285017 97 94 97
0.578735 0.00292969 0.424805 0.91271 -0.308837 -0.267544 102 99 101
0.579905 0.00292969 0.430664 0.951653 -0.237065 -0.195336 99 96 99
0.581742 0.00292969 0.436523 0.959892 -0.220369 -0.173333 87 84 88
0.580896 0.00292969 0.442383 0.972029 -0.19651 -0.128624 99 96 99
0.581315 0.00292969 0.448242 0.976922 -0.190006 -0.0975758 106 101 105
0.581967 0.00292969 0.454102 0.988023 -0.146474 -0.0485365 101 97 100
0.581546 0.00292969 0.459961 0.997621 -0.0685021 -0.00767664 96 91 95
0.580537 0.00292969 0.46582 0.998071 -0.0248856 -0.0568835 77 72 76
0.577148 0.0131979 0.413086 0.949302 0.0569305 -0.309168 110 107 110
0.577148 0.00878906 0.414169 0.95282 -0.156735 -0.259937 98 95 98
0.578761 0.00878906 0.418945 0.962353 -0.114692 -0.246418 96 93 95
0.58019 0.00878906 0.424805 0.955883 -0.149613 -0.252791 101 98 101
0.581001 0.00878906 0.430664 0.962008 -0.190571 -0.195507 100 96 100
0.58216 0.00878906 0.436523 0.975494 -0.170126 -0.139529 101 96 101
0.582383 0.00878906 0.442383 0.981047 -0.152815 -0.11914 93 88 91
0.577148 0.0146484 0.412312 0.94803 0.135237 -0.288009 114 110 113
0.577269 0.0146484 0.413086 0.946286 0.139995 -0.291453 114 111 113
0.577148 0.0149393 0.413086 0.947659 0.166584 -0.272381 113 110 112
0.578322 0.0146484 0.418945 0.954616 0.0693813 -0.289647 93 89 92
0.577148 0.0184513 0.418945 0.928137 0.162141 -0.33507 92 85 87
0.579667 0.0146484 0.424805 0.959565 0.0402312 -0.278598 80 75 78
0.580764 0.0146484 0.430664 0.970775 0.0580867 -0.232856 77 72 75
0.582291 0.0146484 0.442383 0.993295 0.0495454 -0.10445 35 28 30
0.581937 0.0146484 0.46582 0.97334 -0.200436 -0.111513 34 29 32
0.577148 0.0205078 0.420241 0.936388 0.168159 -0.308058 92 83 85
0.580767 0.0205078 0.424805 0.928685 0.186831 -0.320373 65 55 56
0.577148 0.0223647 0.424805 0.950235 0.196039 -0.242122 91 84 85
0.577148 0.0236518 0.430664 0.915841 0.350384 -0.196129 84 78 79
0.577148 0.0242234 0.436523 0.912852 0.271724 -0.30474 70 64 65
0.577148 0.0316502 0.418945 0.901796 -0.38868 -0.188926 27 19 20
0.577148 0.0313305 0.424805 0.933612 -0.355791 -0.0422074 26 19 21
0.577148 0.0300531 0.430664 0.979514 -0.0991297 -0.17529 33 28 28
0.577148 0.0315566 0.436523 0.925579 -0.315282 -0.209524 19 15 14
0.577148 0.0263672 0.439765 0.950481 0.209794 -0.229288 30 23 23
0.579367 0.0263672 0.442383 0.961709 0.14407 -0.23315 33 26 24
0.580702 0.0263672 0.448242 0.96827 0.184284 -0.168796 29 24 22
0.581203 0.0263672 0.454102 0.99288 0.100396 -0.064107 22 18 17
0.5828 0.0263672 0.459961 0.993857 -0.0244062 -0.107948 18 17 16
0.577148 0.0372686 0.401367 0.808725 -0.564578 -0.164969 27 19 20
0.577148 0.0353406 0.407227 0.822489 -0.547859 -0.152845 44 36 37
0.577148 0.033238 0.413086 0.82273 -0.542714 -0.169051 33 26 27
0.577148 0.0322266 0.416678 0.868734 -0.42253 -0.258398 27 19 20
0.578037 0.0322266 0.418945 0.892116 -0.393055 -0.222794 23 15 16
0.578584 0.0322266 0.424805 0.939037 -0.336136 -0.0722644 22 16 17
0.579747 0.0322266 0.430664 0.945649 -0.273775 -0.175486 28 22 21
0.577513 0.0322266 0.436523 0.89514 -0.404147 -0.188121 18 14 13
0.579048 0.0322266 0.448242 0.927938 -0.33313 -0.1672 27 23 22
0.582324 0.0322266 0.454102 0.969192 -0.235621 -0.0717658 38 35 32
0.580553 0.0322266 0.459961 0.871142 -0.484358 -0.0806744 28 26 23
0.582456 0.0322266 0.46582 0.936989 -0.336845 -0.0926625 35 33 30
0.577148 0.0421738 0.389648 0.877177 -0.339091 -0.339968 30 23 22
0.577148 0.0400655 0.395508 0.794015 -0.557787 -0.241691 21 14 14
0.577148 0.0380859 0.399877 0.807465 -0.567497 -0.161084 18 9 10
0.578253 0.0380859 0.401367 0.81764 -0.556939 -0.145892 17 10 10
0.579049 0.0380859 0.407227 0.805017 -0.568187 -0.170621 18 12 12
0.580609 0.0380859 0.413086 0.820854 -0.556714 -0.127546 22 17 17
0.582193 0.0380859 0.424805 0.789798 -0.590911 -0.164446 19 15 15
0.577148 0.0439453 0.384498 0.896513 -0.165859 -0.410799 21 15 14
0.581643 0.0439453 0.389648 0.75914 -0.370482 -0.53521 23 19 17
0.581326 0.0439453 0.395508 0.750632 -0.5473 -0.370153 28 23 23
0.581342 0.0439453 0.418945 0.791059 -0.596051 -0.137654 23 19 17
0.58208 0.0439453 0.424805 0.764261 -0.611101 -0.206058 14 11 9
0.577148 0.0498047 0.38722 0.811498 -0.227554 -0.538229 20 18 17
0.577148 0.0540126 0.389648 0.676346 -0.404591 -0.615518 22 20 17
0.579124 0.0498047 0.454102 0.912101 0.26284 0.314621 20 17 16
0.57798 0.0498047 0.459961 0.93741 0.347844 -0.0163225 31 28 26
0.579133 0.0498047 0.46582 0.894681 0.446629 -0.00823427 28 25 23
0.577148 0.0597434 0.37793 0.430893 -0.870809 -0.23669 20 18 16
0.577148 0.0557601 0.383789 0.714683 -0.561529 -0.417029 31 29 27
0.577148 0.0565147 0.389648 0.676346 -0.404591 -0.615518 23 22 18
0.577148 0.0556641 0.391521 0.663849 -0.369102 -0.650437 22 20 17
0.579821 0.0556641 0.454102 0.739893 0.514066 0.43393 54 48 45
0.580761 0.0673828 0.448242 0.626584 0.254702 0.736559 60 55 49
0.583008 0.00593091 0.448242 0.98236 -0.168044 -0.0820323 94 89 93
0.583008 0.00478532 0.454102 0.990865 -0.128547 -0.0407807 87 82 87
0.583008 0.00610249 0.459961 0.995717 -0.0924043 -0.00292103 63 58 61
0.583008 0.00791578 0.46582 0.99672 -0.0788513 0.0182147 35 31 33
0.583008 0.0142627 0.436523 0.986988 -0.0457363 -0.154154 49 43 45
0.583008 0.00878906 0.443706 0.985394 -0.133591 -0.105607 91 86 89
0.584676 0.00878906 0.448242 0.978732 -0.184677 -0.089323 71 67 69
0.585034 0.00878906 0.454102 0.983069 -0.18252 -0.0161787 48 43 47
0.58443 0.00878906 0.459961 0.990276 -0.137837 0.0188135 34 29 32
0.583536 0.00878906 0.46582 0.997468 -0.0699857 0.0126092 28 24 26
0.583008 0.0101294 0.46582 0.98583 -0.167456 0.00992216 26 21 23
0.583008 0.0184086 0.430664 0.926129 0.281713 -0.250846 47 38 40
0.583008 0.0146484 0.43639 0.986988 -0.0457363 -0.154154 46 40 42
0.583068 0.0146484 0.436523 0.984853 -0.0478933 -0.166645 45 39 41
0.583008 0.0146484 0.436976 0.989901 0.058926 -0.128935 44 38 40
0.583008 0.0160491 0.442383 0.992369 0.0663517 -0.103931 23 16 18
0.583008 0.0146484 0.444982 0.989335 0.043052 -0.139147 22 14 16
0.584014 0.0146484 0.448242 0.996478 -0.041757 -0.0727123 19 13 14
0.584087 0.0146484 0.454102 0.999366 -0.0348124 -0.00745029 17 12 13
0.585467 0.0146484 0.459961 0.995603 -0.0769557 -0.0534023 17 13 14
0.583008 0.0146484 0.462587 0.98657 -0.12204 -0.108565 13 9 11
0.583008 0.0174264 0.46582 0.977692 -0.147684 -0.149356 12 9 10
0.583008 0.0146484 0.468524 0.953969 -0.282963 -0.099377 12 8 10
0.583008 0.0205078 0.427796 0.939264 0.255955 -0.228627 37 27 27
0.584022 0.0205078 0.430664 0.935582 0.269352 -0.228333 31 22 23
0.583008 0.0212408 0.430664 0.93473 0.296117 -0.196453 32 23 24
0.585048 0.0205078 0.436523 0.961902 0.19185 -0.194779 29 20 23
0.583008 0.0223979 0.436523 0.947302 0.249071 -0.201452 33 25 27
0.585109 0.0205078 0.442383 0.983723 0.116807 -0.136551 17 12 13
0.583008 0.0227408 0.442383 0.965164 0.231779 -0.121397 25 20 19
0.586225 0.0205078 0.448242 0.994854 0.0680052 -0.0751086 17 14 14
0.583008 0.0226155 0.448242 0.982614 0.144487 -0.116595 18 15 15
0.58711 0.0205078 0.454102 0.998184 0.0474044 -0.0371752 22 18 20
0.583008 0.024376 0.454102 0.989072 0.116974 -0.0897372 23 20 20
0.586905 0.0205078 0.459961 0.985492 -0.0666039 -0.15611 24 20 21
0.583008 0.0260258 0.459961 0.993857 -0.0244062 -0.107948 18 17 17
0.585338 0.0205078 0.46582 0.968392 -0.0809705 -0.235926 14 12 11
0.583008 0.0302043 0.442383 0.951809 -0.19837 -0.2339 36 31 28
0.583008 0.0263672 0.460354 0.993065 -0.035746 -0.112001 17 17 16
0.584608 0.0263672 0.46582 0.965369 0.025721 -0.259618 17 15 15
0.583008 0.031231 0.46582 0.90613 -0.415313 -0.0802773 34 31 29
0.583008 0.0376138 0.418945 0.824645 -0.540387 -0.167162 30 23 27
0.583008 0.0363699 0.430664 0.773787 -0.621726 -0.121288 32 25 24
0.583008 0.0358891 0.436523 0.782335 -0.59824 -0.173381 31 25 25
0.583008 0.0322266 0.440834 0.928082 -0.32044 -0.18969 33 28 25
0.584151 0.0322266 0.442383 0.922885 -0.35039 -0.15972 37 30 28
0.583008 0.0322266 0.444669 0.915688 -0.341933 -0.211182 39 33 31
0.583008 0.0338532 0.448242 0.922253 -0.379042 -0.0760034 47 43 39
0.583008 0.0324657 0.454102 0.963764 -0.258018 -0.0677167 42 39 35
0.583008 0.0341457 0.459961 0.924163 -0.376635 -0.0637809 40 38 34
0.588157 0.0322266 0.46582 0.941322 -0.310963 -0.131208 51 45 43
0.583008 0.0329515 0.46582 0.936989 -0.336845 -0.0926625 39 36 32
0.583008 0.0418354 0.401367 0.709474 -0.687349 -0.155557 21 17 16
0.583008 0.0430648 0.407227 0.785591 -0.613368 -0.081397 17 14 15
0.583008 0.043709 0.413086 0.77326 -0.631677 -0.055257 25 22 20
0.583008 0.0380859 0.418446 0.824403 -0.542818 -0.16034 29 22 26
0.583646 0.0380859 0.418945 0.824645 -0.540387 -0.167162 29 23 26
0.583008 0.0391723 0.418945 0.824645 -0.540387 -0.167162 29 22 25
0.583008 0.0380859 0.420334 0.824645 -0.540387 -0.167162 27 21 24
0.583008 0.0380859 0.427884 0.782233 -0.601906 -0.16069 24 18 18
0.584048 0.0380859 0.430664 0.766174 -0.631023 -0.121606 30 24 23
0.586129 0.0380859 0.436523 0.718175 -0.664529 -0.20646 39 32 32
0.58675 0.0380859 0.442383 0.788845 -0.610928 -0.0670118 47 41 41
0.588323 0.0380859 0.448242 0.862066 -0.502092 -0.0688926 51 45 44
0.586125 0.0380859 0.454102 0.892017 -0.425804 -0.151644 52 46 44
0.583008 0.0467388 0.389648 0.698296 -0.355945 -0.621036 30 28 26
0.583008 0.0455493 0.395508 0.667345 -0.571744 -0.477241 29 25 24
0.583008 0.0439453 0.39837 0.641096 -0.677128 -0.361239 26 22 22
0.58401 0.0439453 0.401367 0.644444 -0.751438 -0.141539 24 20 19
0.583685 0.0439453 0.407227 0.701621 -0.709651 -0.0642157 19 16 16
0.583274 0.0439453 0.413086 0.77326 -0.631677 -0.055257 26 23 21
0.583008 0.0439453 0.413632 0.760331 -0.645742 -0.0701057 25 22 20
0.583008 0.045193 0.418945 0.771753 -0.619091 -0.145339 24 21 18
0.58564 0.0439453 0.424805 0.740355 -0.645233 -0.188544 24 20 17
0.583008 0.0450844 0.424805 0.752817 -0.633135 -0.180018 18 15 12
0.583008 0.0439453 0.426276 0.787856 -0.588017 -0.18308 13 11 9
0.588488 0.0439453 0.436523 0.583626 -0.795717 -0.16191 31 23 25
0.588329 0.0439453 0.454102 0.046693 -0.920458 -0.388043 33 24 24
0.583008 0.0453656 0.454102 0.797693 -0.0507492 0.600924 21 14 12
0.583008 0.0469558 0.459961 0.760438 0.63391 0.141039 25 19 16
0.58707 0.0439453 0.46582 0.957231 0.0631167 0.282355 39 30 31
0.583008 0.0473186 0.46582 0.940228 0.340454 -0.00788572 27 22 20
0.583008 0.0498047 0.387888 0.592025 -0.472545 -0.652846 40 37 36
0.583764 0.0498047 0.389648 0.539951 -0.393467 -0.744068 37 34 33
0.583008 0.0512913 0.389648 0.520958 -0.439089 -0.731986 37 34 33
0.587645 0.0498047 0.395508 0.200757 -0.712745 -0.67208 17 16 15
0.58849 0.0498047 0.413086 0.315779 -0.945646 -0.0776956 32 28 30
0.583008 0.0498047 0.45016 0.927438 0.254685 0.27385 32 26 23
0.586928 0.0498047 0.454102 -0.913432 -0.197432 -0.355897 35 28 27
0.583008 0.0588707 0.37793 0.144557 -0.948623 -0.281455 30 27 24
0.583008 0.0577949 0.383789 0.187749 -0.913439 -0.361081 35 32 30
0.583008 0.0569871 0.389648 0.26534 -0.771588 -0.578141 33 29 26
0.583008 0.0556641 0.393878 0.332305 -0.634119 -0.698187 30 26 23
0.585796 0.0556641 0.454102 -0.453568 -0.638098 -0.622179 94 85 80
0.585769 0.0556641 0.459961 -0.0326424 0.979376 0.199394 81 72 66
0.583008 0.0673828 0.44428 -0.330961 0.818522 -0.469559 48 41 38
0.588867 0.0205078 0.471186 0.98253 -0.122393 -0.140198 17 14 14
0.588867 0.032165 0.46582 0.941322 -0.310963 -0.131208 52 47 44
0.588867 0.0338718 0.459961 0.844031 -0.466225 -0.26504 48 42 41
0.588867 0.0322266 0.465519 0.94398 -0.329763 -0.0125755 52 46 44
0.588901 0.0322266 0.46582 0.941322 -0.310963 -0.131208 52 47 44
0.588867 0.0427386 0.424805 0.546703 -0.827044 -0.130819 35 30 27
0.588867 0.0421388 0.430664 0.579178 -0.802452 -0.14361 39 33 32
0.588867 0.0425315 0.442383 0.68569 -0.726385 0.046835 47 39 42
0.588867 0.0391766 0.448242 0.855602 -0.516219 0.0382553 49 42 42
0.588867 0.0380859 0.45765 0.851174 -0.500403 -0.158431 53 45 45
0.588867 0.0392253 0.46582 0.953242 -0.143114 0.266174 50 41 40
0.588867 0.0380859 0.467647 0.976391 -0.195992 0.0908158 48 39 39
0.588867 0.0488812 0.401367 0.147734 -0.983913 -0.100452 22 18 19
0.588867 0.0490116 0.407227 0.320295 -0.94632 -0.0434759 25 22 23
0.588867 0.045108 0.418945 0.548408 -0.803931 -0.230096 42 36 30
0.588867 0.0439453 0.421497 0.508468 -0.815909 -0.275231 41 34 30
0.589895 0.0439453 0.424805 0.529124 -0.836847 -0.14041 34 28 26
0.590925 0.0439453 0.430664 0.457033 -0.830976 -0.317175 36 31 30
0.588867 0.0439453 0.435716 0.577548 -0.774404 -0.258334 33 25 27
0.588867 0.0442036 0.436523 0.583626 -0.795717 -0.16191 32 25 27
0.588867 0.0439453 0.437713 0.569561 -0.800424 -0.186875 34 27 29
0.589987 0.0439453 0.442383 0.427141 -0.900915 0.0768293 41 34 36
0.591711 0.0439453 0.448242 0.280623 -0.956036 0.0851275 36 28 29
0.588867 0.0439453 0.453353 -0.0653707 -0.929216 0.363708 35 26 26
0.588867 0.0443051 0.454102 -0.100597 -0.981077 -0.165434 35 26 26
0.588867 0.0439453 0.454901 -0.100597 -0.981077 -0.165434 35 26 26
0.588867 0.0439453 0.46177 0.237161 -0.96807 0.0812058 39 30 31
0.588867 0.0439453 0.471143 0.991851 -0.108666 0.0665125 30 21 19
0.588867 0.052746 0.395508 0.219296 -0.773679 -0.594415 23 21 20
0.588867 0.0498047 0.397992 0.281449 -0.788911 -0.546266 17 15 15
0.588867 0.0498047 0.411703 0.327038 -0.942957 -0.0622825 30 26 29
0.589303 0.0498047 0.413086 0.288409 -0.957325 -0.0186619 32 28 30
0.588867 0.0500325 0.413086 0.288409 -0.957325 -0.0186619 32 28 31
0.588867 0.0498047 0.413449 0.354716 -0.933923 -0.044323 33 29 31
0.592453 0.0498047 0.418945 0.299528 -0.949945 -0.0888154 27 23 20
0.591622 0.0498047 0.424805 0.378102 -0.909066 -0.175037 34 29 26
0.593156 0.0498047 0.430664 0.338307 -0.926139 -0.166781 28 25 21
0.588867 0.0594962 0.37793 -0.0928735 -0.962247 -0.255842 32 30 30
0.588867 0.0590233 0.383789 -0.0172151 -0.962629 -0.270277 34 30 30
0.588867 0.0578542 0.389648 0.0409633 -0.892471 -0.449242 35 31 31
0.588867 0.0556641 0.393863 0.0509764 -0.805305 -0.590665 34 29 29
0.593927 0.0732422 0.37793 0.971112 0.0542176 -0.232382 23 21 19
0.593232 0.0849609 0.37793 0.944377 -0.27303 -0.18332 40 35 34
0.593738 0.0849609 0.383789 0.924636 -0.215229 -0.314204 42 35 35
0.594123 0.0849609 0.389648 0.962483 -0.194552 -0.189145 30 23 23
0.5918 0.0849609 0.401367 -0.241922 0.970191 -0.0142523 34 25 29
0.594186 0.0908203 0.37793 0.928031 -0.362522 -0.0856505 24 19 19
0.599432 0.00292969 0.413086 -0.961282 -0.254476 -0.105734 140 138 145
0.5986 0.00292969 0.418945 -0.994573 -0.100752 -0.0259379 137 135 140
0.598136 0.00292969 0.424805 -0.999735 -0.0124533 0.0193719 131 130 134
0.598964 0.00292969 0.430664 -0.997757 0.0355035 0.0567454 128 126 131
0.600109 0.00292969 0.436523 -0.982478 0.117421 0.144736 129 126 130
0.600141 0.00878906 0.383789 -0.709899 -0.668017 -0.223152 185 181 188
0.599436 0.00878906 0.389648 -0.728786 -0.644518 -0.231228 181 175 181
0.599128 0.00878906 0.395508 -0.822878 -0.549071 -0.146264 152 145 148
0.598617 0.00878906 0.401367 -0.962421 -0.251764 -0.101792 131 126 128
0.597555 0.00878906 0.407227 -0.997832 -0.0602839 0.0264167 125 123 125
0.597651 0.00878906 0.413086 -0.999824 0.000874487 0.0187498 115 113 116
0.597801 0.00878906 0.418945 -0.99969 0.0241251 0.0061211 117 115 117
0.598548 0.00878906 0.424805 -0.987227 0.133424 0.0870697 126 125 126
0.599823 0.00878906 0.430664 -0.972958 0.196053 0.122129 134 132 134
0.598794 0.0146484 0.37793 -0.817482 -0.539083 -0.202763 162 156 160
0.598184 0.0146484 0.383789 -0.846791 -0.493828 -0.197686 133 123 129
0.597759 0.0146484 0.389648 -0.976881 -0.211903 -0.0282996 125 116 123
0.597189 0.0146484 0.395508 -0.991602 -0.129323 0.000167893 125 116 123
0.597847 0.0146484 0.401367 -0.999273 0.00772728 0.0373302 125 119 125
0.597919 0.0146484 0.407227 -0.997289 0.0515573 0.052509 113 108 114
0.59924 0.0146484 0.413086 -0.991815 0.104863 0.0728495 123 117 123
0.598257 0.0205078 0.37793 -0.958602 -0.28269 -0.0341935 142 139 145
0.597953 0.0205078 0.383789 -0.988086 -0.151328 0.0280204 135 132 137
0.598108 0.0205078 0.389648 -0.998768 -0.00535092 0.0493312 131 127 132
0.599288 0.0205078 0.395508 -0.996904 0.0538749 0.0572749 127 123 128
0.599266 0.0205078 0.401367 -0.990889 0.109738 0.078076 122 118 123
0.599428 0.0205078 0.407227 -0.977975 0.181858 0.102438 123 119 123
0.600512 0.0205078 0.413086 -0.962577 0.226575 0.148693 130 123 128
0.597242 0.0263672 0.37793 -0.990177 -0.00914453 0.13952 130 125 132
0.598178 0.0263672 0.383789 -0.992902 0.0534356 0.106253 126 124 129
0.598777 0.0263672 0.389648 -0.99012 0.0957712 0.102421 121 119 124
0.599899 0.0263672 0.395508 -0.985428 0.127933 0.112089 130 129 134
0.598123 0.0322266 0.37793 -0.974968 0.138929 0.173598 118 117 124
0.598829 0.0322266 0.383789 -0.986143 0.119353 0.115222 119 118 123
0.599979 0.0322266 0.389648 -0.990759 0.0789215 0.110308 119 118 123
0.599195 0.0380859 0.37793 -0.971132 0.202017 0.126853 111 111 117
0.599462 0.0380859 0.383789 -0.987122 0.142606 0.0724889 112 111 117
0.600166 0.0380859 0.418945 -0.872397 -0.488798 0.000684879 7 8 7
0.599952 0.0380859 0.424805 -0.749637 -0.657354 0.0770086 9 10 10
0.599753 0.0439453 0.389648 -0.986595 -0.110322 -0.120245 35 32 35
0.599024 0.0439453 0.395508 -0.893844 -0.372049 -0.250246 18 17 17
0.598141 0.0439453 0.401367 -0.821326 -0.564419 -0.082789 15 14 14
0.594727 0.048872 0.401367 -0.546729 -0.808678 -0.217089 18 16 16
0.598668 0.0439453 0.407227 -0.761956 -0.645306 -0.0548083 15 14 14
0.594727 0.0488578 0.407227 -0.46092 -0.886242 0.0461382 19 17 17
0.597743 0.0439453 0.413086 -0.748368 -0.663186 0.0113461 17 16 14
0.594727 0.0469548 0.413086 -0.498358 -0.861939 0.0932711 28 25 22
0.598625 0.0439453 0.418945 -0.777311 -0.628187 -0.0341912 13 13 11
0.598578 0.0439453 0.424805 -0.793935 -0.607492 0.024912 13 13 12
0.598545 0.0439453 0.430664 -0.5754 -0.814983 0.0686832 20 19 18
0.59821 0.0439453 0.436523 -0.349574 -0.906209 0.237874 19 16 16
0.594727 0.0491891 0.436523 0.697789 -0.70371 -0.133727 26 23 20
0.599135 0.0439453 0.442383 -0.815675 -0.188472 0.546948 24 22 20
0.594727 0.0481812 0.442383 0.735825 -0.558726 -0.382606 33 29 27
0.594727 0.0465251 0.448242 0.575367 -0.773929 0.26455 33 28 26
0.594727 0.0447116 0.454102 0.449586 -0.886319 0.110952 34 28 26
0.594727 0.0439453 0.457978 0.393873 -0.915398 0.0831297 38 32 29
0.599238 0.0439453 0.459961 -0.357481 -0.781059 0.51201 32 27 26
0.594727 0.0439453 0.460438 0.257834 -0.94386 0.206517 42 36 33
0.598275 0.0498047 0.395508 -0.764583 -0.487013 -0.422175 13 13 12
0.594727 0.0514482 0.395508 -0.377168 -0.771998 -0.511629 19 19 17
0.594727 0.0498047 0.398563 -0.439449 -0.670911 -0.597297 18 17 17
0.594727 0.0498047 0.416392 -0.280321 -0.959445 0.0297674 24 22 20
0.596484 0.0498047 0.418945 -0.711973 -0.695988 0.0932512 18 17 17
0.594727 0.0510587 0.418945 -0.0849246 -0.992226 -0.0909732 18 17 16
0.597788 0.0498047 0.424805 -0.761795 -0.647239 0.0273741 20 18 17
0.594727 0.0516985 0.424805 0.314914 -0.944779 -0.0906744 21 18 17
0.597365 0.0498047 0.430664 0.0946662 -0.995423 -0.0130861 19 19 16
0.594727 0.0507005 0.430664 0.467327 -0.874989 -0.126488 20 19 16
0.594727 0.0498047 0.435645 0.704893 -0.681627 -0.196239 26 23 20
0.598864 0.0498047 0.442383 -0.837639 0.520543 0.165516 27 26 24
0.599978 0.0498047 0.448242 -0.994785 0.0988726 -0.0250436 29 27 26
0.594727 0.0498047 0.463918 0.305931 -0.944246 -0.121683 51 42 39
0.594727 0.0510498 0.46582 0.423017 -0.888128 -0.179683 59 48 45
0.600414 0.0556641 0.37793 -0.940262 -0.338674 -0.0347326 10 10 10
0.594727 0.0588972 0.37793 -0.351363 -0.904645 -0.241169 13 14 12
0.594727 0.0576508 0.383789 -0.308255 -0.924972 -0.222271 13 13 12
0.598072 0.0556641 0.389648 -0.641233 -0.609403 -0.466314 10 11 10
0.594727 0.0566628 0.389648 -0.176804 -0.901069 -0.396 15 16 14
0.594727 0.0556641 0.391468 -0.350538 -0.728209 -0.588926 17 17 15
0.599349 0.0556641 0.442383 -0.965446 0.0957673 0.242369 39 35 29
0.597305 0.0556641 0.448242 0.852874 -0.51707 0.0724126 47 42 37
0.597267 0.0556641 0.454102 0.527685 0.762042 0.375288 50 45 40
0.594727 0.0721936 0.37793 0.970931 0.0189723 -0.238608 21 20 19
0.595421 0.0732422 0.37793 -0.963814 -0.0613509 0.25942 20 19 17
0.594727 0.0770131 0.37793 -0.971844 0.0149818 0.235149 25 23 21
0.594727 0.0732422 0.37962 0.915717 0.143707 -0.375247 23 21 20
0.594727 0.0799477 0.37793 -0.997095 0.0284344 0.0706556 27 24 22
0.594727 0.0823501 0.383789 0.934647 -0.114807 -0.336532 29 24 23
0.600501 0.0791016 0.389648 -0.942445 0.13902 0.30409 13 13 13
0.594727 0.0826253 0.389648 0.969094 -0.22476 -0.101683 29 23 23
0.594727 0.0814362 0.401367 -0.241922 0.970191 -0.0142523 32 26 28
0.596291 0.0849609 0.37793 -0.962611 0.211698 0.169007 23 21 19
0.599906 0.0849609 0.383789 -0.79555 0.332155 0.506727 17 16 14
0.594727 0.0865475 0.383789 0.854729 -0.29163 -0.429407 28 23 22
0.597608 0.0849609 0.389648 0.90868 -0.25747 -0.328648 24 20 19
0.594727 0.0855184 0.389648 0.962483 -0.194552 -0.189145 29 22 22
0.594727 0.0849609 0.390933 0.981902 -0.0997556 0.16099 30 23 23
0.597588 0.0849609 0.395508 -0.268791 -0.908519 0.319914 28 24 23
0.594727 0.0849609 0.397003 -0.18022 -0.960548 0.211823 32 25 26
0.596027 0.0908203 0.37793 0.940711 -0.314905 -0.126082 22 18 18
0.594727 0.0912852 0.37793 0.938124 -0.333703 -0.0925458 23 19 19
0.594727 0.0908203 0.378861 0.92361 -0.375659 -0.0763163 24 19 19
0.600548 0.0908203 0.383789 0.927267 -0.27338 -0.25581 19 18 17
0.600422 0.0908203 0.395508 0.695733 -0.624647 -0.354644 26 24 21
0.600586 0.00826316 0.383789 -0.616279 -0.740121 -0.269111 190 186 194
0.600586 0.0070845 0.389648 -0.684983 -0.697687 -0.209835 193 188 195
0.604345 0.00292969 0.395508 -0.381481 -0.849755 -0.363854 212 210 217
0.600586 0.00614926 0.395508 -0.765496 -0.617759 -0.17997 176 171 177
0.602039 0.00292969 0.401367 -0.704691 -0.653607 -0.276061 196 193 201
0.600586 0.00484076 0.401367 -0.735621 -0.61774 -0.277954 174 170 176
0.601332 0.00292969 0.407227 -0.843966 -0.470645 -0.257322 158 154 162
0.600586 0.0037732 0.407227 -0.843966 -0.470645 -0.257322 148 144 151
0.600586 0.00292969 0.409474 -0.921573 -0.35208 -0.163532 148 144 152
0.600586 0.0058215 0.436523 -0.972318 0.176598 0.153003 127 124 128
0.600586 0.00292969 0.438426 -0.984094 0.127344 0.123863 132 130 134
0.601957 0.00292969 0.442383 -0.967928 0.164561 0.189827 127 125 129
0.603664 0.00292969 0.448242 -0.966638 0.166257 0.194859 113 110 115
0.603971 0.00292969 0.454102 -0.974816 0.141959 0.171991 113 109 113
0.604872 0.00292969 0.459961 -0.985848 0.0986343 0.135558 107 104 108
0.605505 0.00292969 0.46582 -0.993749 0.0611369 0.0934086 127 123 127
0.600586 0.0116685 0.37793 -0.464568 -0.851114 -0.244504 190 185 191
0.600586 0.00878906 0.382806 -0.640347 -0.715038 -0.280495 191 187 195
0.600586 0.0137715 0.418945 -0.979379 0.173034 0.104292 134 129 134
0.600586 0.0114825 0.424805 -0.968585 0.212661 0.128911 137 134 137
0.600586 0.00944437 0.430664 -0.972958 0.196053 0.122129 138 135 138
0.600586 0.00878906 0.433602 -0.964341 0.223509 0.141738 131 128 131
0.601102 0.00878906 0.436523 -0.966369 0.202222 0.158862 121 118 122
0.602778 0.00878906 0.442383 -0.968777 0.178657 0.17191 116 112 114
0.60421 0.00878906 0.448242 -0.976831 0.140807 0.161167 101 97 99
0.60463 0.00878906 0.454102 -0.984283 0.105181 0.141859 114 110 112
0.605352 0.00878906 0.459961 -0.991988 0.0695647 0.105453 125 121 124
0.604956 0.00878906 0.46582 -0.992696 0.0752041 0.0943298 38 33 38
0.600586 0.0146484 0.417542 -0.979379 0.173034 0.104292 134 128 134
0.601214 0.0146484 0.418945 -0.973062 0.19685 0.120003 133 127 133
0.602438 0.0146484 0.424805 -0.954106 0.259796 0.148953 129 124 130
0.603297 0.0146484 0.430664 -0.958964 0.251257 0.131369 123 117 124
0.603786 0.0146484 0.436523 -0.964989 0.2261 0.13295 105 100 106
0.604162 0.0146484 0.442383 -0.973979 0.191316 0.1215 95 90 94
0.604362 0.0146484 0.448242 -0.982608 0.149792 0.109743 105 101 105
0.604203 0.0146484 0.454102 -0.988948 0.11701 0.0910494 45 41 45
0.605958 0.0146484 0.459961 -0.989442 0.0993331 0.105536 20 15 19
0.60586 0.0146484 0.46582 -0.989492 0.102105 0.102375 11 9 10
0.600586 0.0246527 0.401367 -0.98327 0.147792 0.106479 137 135 140
0.600586 0.0231343 0.407227 -0.976226 0.178613 0.122798 137 135 139
0.600586 0.0206396 0.413086 -0.962577 0.226575 0.148693 130 124 128
0.600586 0.0205078 0.413484 -0.961737 0.233809 0.142813 131 124 129
0.601594 0.0205078 0.418945 -0.969151 0.187117 0.160414 133 127 131
0.603317 0.0205078 0.424805 -0.964946 0.219874 0.143303 106 101 105
0.603466 0.0205078 0.430664 -0.967279 0.220419 0.125645 83 78 81
0.604303 0.0205078 0.436523 -0.973532 0.208906 0.092705 102 98 102
0.60407 0.0205078 0.442383 -0.981754 0.180834 0.0588061 71 67 69
0.604198 0.0205078 0.448242 -0.985821 0.148476 0.0781776 21 16 18
0.604868 0.0205078 0.454102 -0.987274 0.141335 0.0729012 15 12 11
0.600586 0.0311898 0.395508 -0.992018 0.0598511 0.110989 127 126 132
0.600586 0.0263672 0.398841 -0.985343 0.131825 0.108266 137 136 141
0.601155 0.0263672 0.401367 -0.986698 0.127263 0.101149 137 135 141
0.601822 0.0263672 0.407227 -0.988361 0.113696 0.10107 139 138 143
0.603008 0.0263672 0.413086 -0.992043 0.0593459 0.111031 120 118 123
0.603429 0.0263672 0.418945 -0.98978 0.00898482 0.142321 87 85 89
0.604595 0.0263672 0.424805 -0.979141 -0.0313733 0.200744 110 109 111
0.605244 0.0263672 0.430664 -0.979183 -0.03985 0.19903 116 114 117
0.605396 0.0263672 0.436523 -0.992246 0.0611288 0.108221 35 31 35
0.606332 0.0263672 0.454102 -0.996647 0.0653201 0.0492733 8 10 8
0.600586 0.0378139 0.389648 -0.994684 0.0788236 0.0662631 139 137 144
0.600586 0.0322266 0.394272 -0.995 0.0414152 0.0908888 125 124 130
0.600765 0.0322266 0.395508 -0.994815 0.0292862 0.0973955 126 125 130
0.602004 0.0322266 0.401367 -0.996551 0.0137619 0.0818344 120 118 125
0.602378 0.0322266 0.407227 -0.998907 -0.0182024 0.0430408 71 68 74
0.602736 0.0322266 0.413086 -0.994897 -0.0839022 0.0560369 67 66 68
0.603289 0.0322266 0.418945 -0.9862 -0.144005 0.0816864 74 74 76
0.600586 0.0370264 0.418945 -0.853037 -0.521816 -0.00608172 7 8 7
0.604474 0.0322266 0.424805 -0.963803 -0.218147 0.153282 42 40 44
0.600586 0.0372495 0.424805 -0.835239 -0.544263 0.0784477 8 9 9
0.604988 0.0322266 0.430664 -0.95929 -0.21196 0.186644 21 20 22
0.600586 0.0425507 0.37793 -0.98711 0.130899 0.0920879 142 141 148
0.600586 0.0421108 0.383789 -0.992699 0.117714 0.0263141 109 106 114
0.600586 0.0380859 0.389465 -0.993856 0.100217 0.046984 139 137 144
0.600621 0.0380859 0.389648 -0.998858 0.0428843 0.0210641 139 137 145
